ncols         536
nrows         39
xllcorner     -3.262084961
yllcorner     7.22168515322
cellsize      0.0083253775074627
NODATA_value  -9999
-9999 -9999 -9999 -9999 -9999 -9999 -9999 -9999 -9999 -9999 -9999 -9999 -9999 -9999 -9999 -9999 -9999 -9999 -9999 -9999 -9999 -9999 -9999 -9999 -9999 -9999 -9999 -9999 -9999 -9999 -9999 -9999 -9999 -9999 -9999 -9999 -9999 -9999 -9999 -9999 237 238 254 255 259 262 273 262 279 279 287 286 286 287 283 274 270 283 268 267 264 271 276 297 300 303 295 293 307 326 333 350 327 325 327 336 328 341 340 322 303 306 293 275 277 281 268 255 252 262 261 277 261 265 257 273 248 237 223 219 237 245 255 242 249 230 245 233 229 233 251 255 250 252 236 228 240 242 239 219 215 206 224 252 293 229 225 234 246 242 253 266 277 299 305 295 288 274 278 293 306 328 350 338 348 362 337 344 372 394 405 393 406 390 387 379 369 355 381 411 421 415 414 403 384 365 353 340 331 341 359 348 324 317 326 323 308 285 273 294 316 356 370 368 355 339 334 333 321 310 305 301 292 284 271 257 239 222 208 195 184 176 177 170 166 157 163 166 159 155 156 157 174 175 170 185 187 182 185 181 168 159 158 161 175 183 171 171 181 170 172 185 204 198 201 210 193 203 216 211 217 212 201 188 194 195 188 178 165 164 170 160 152 150 152 159 151 141 132 127 132 130 128 121 127 130 123 113 108 106 105 115 107 106 102 115 119 106 114 118 127 127 126 120 113 101 109 117 118 106 101 106 119 110 118 120 118 114 111 97 107 114 109 102 99 106 100 92 85 84 91 82 82 83 81 95 92 99 110 109 105 90 99 112 108 93 107 115 115 103 105 118 125 135 125 121 105 107 110 125 130 139 150 147 146 145 143 128 136 124 126 120 122 117 116 112 118 115 110 110 99 107 105 101 99 91 84 82 83 81 81 82 79 79 77 76 76 75 75 75 75 75 76 75 75 76 75 75 75 80 85 82 75 75 75 75 79 79 75 75 75 75 75 75 75 75 75 75 88 93 87 85 89 89 83 79 76 81 88 85 83 85 96 94 88 91 94 80 81 87 96 144 261 200 190 201 231 193 190 232 393 443 301 256 222 202 196 204 219 227 235 254 205 183 180 -9999 -9999 -9999 -9999 -9999 -9999 -9999 -9999 -9999 -9999 -9999 -9999 -9999 -9999 -9999 -9999 -9999 -9999 -9999 -9999 -9999 -9999 -9999 -9999 -9999 -9999 -9999 -9999 -9999 -9999 -9999 -9999 -9999 -9999 -9999 -9999 -9999 -9999 -9999 -9999 -9999 -9999 -9999 -9999 -9999 -9999 -9999 -9999 -9999 -9999 -9999 -9999 -9999 -9999 -9999 -9999 -9999 -9999 -9999 -9999 -9999 -9999 -9999 -9999 -9999 -9999 -9999 -9999 -9999 -9999 -9999 -9999 -9999 -9999 -9999 -9999 -9999 -9999 -9999 -9999 -9999
-9999 -9999 -9999 -9999 -9999 -9999 -9999 -9999 -9999 -9999 -9999 -9999 -9999 -9999 -9999 -9999 -9999 -9999 -9999 -9999 -9999 -9999 -9999 -9999 -9999 -9999 -9999 -9999 -9999 -9999 -9999 -9999 -9999 -9999 -9999 -9999 -9999 -9999 -9999 -9999 236 250 257 264 258 272 271 270 273 278 280 277 277 280 290 281 270 287 273 284 270 282 280 279 293 304 312 305 299 310 325 330 342 331 340 344 338 355 343 318 306 291 296 287 273 260 257 254 267 276 259 281 267 284 274 271 260 239 220 238 241 254 256 247 253 236 252 240 238 253 244 264 258 252 238 232 244 249 238 223 209 220 243 248 251 229 235 244 237 261 261 261 277 306 328 320 304 281 285 304 322 333 343 351 334 345 333 351 374 410 396 410 386 372 370 384 383 361 369 385 388 383 415 409 394 378 362 350 341 340 362 339 329 301 300 300 290 283 293 308 341 347 369 370 364 348 336 330 325 321 318 312 299 283 267 252 237 222 208 193 185 176 166 160 156 156 156 159 170 181 183 180 190 188 179 189 191 190 186 175 176 167 173 161 177 185 177 179 187 176 185 189 207 210 215 211 210 216 216 200 194 187 178 169 179 185 179 175 176 161 158 165 157 144 138 146 152 147 141 133 123 125 129 121 118 121 114 108 107 111 106 103 102 105 101 109 105 103 109 108 120 126 117 119 115 101 100 109 107 102 98 107 114 105 107 110 117 105 111 98 93 104 104 96 92 93 85 84 92 91 83 89 92 94 88 92 99 99 108 99 93 93 107 116 108 94 106 116 110 102 111 116 124 132 123 109 104 122 113 123 134 146 140 136 134 130 127 123 121 118 116 114 112 111 106 104 101 96 96 94 92 88 88 84 84 88 89 84 96 100 99 91 96 96 84 76 82 83 76 75 75 75 75 75 75 75 75 75 75 75 75 75 75 75 75 75 75 75 75 75 75 75 75 75 75 75 75 75 80 76 78 79 91 87 80 75 75 83 88 81 77 85 94 90 86 86 91 87 78 90 121 209 342 198 183 191 235 199 186 246 510 528 310 293 224 201 193 195 212 245 266 285 238 192 184 -9999 -9999 -9999 -9999 -9999 -9999 -9999 -9999 -9999 -9999 -9999 -9999 -9999 -9999 -9999 -9999 -9999 -9999 -9999 -9999 -9999 -9999 -9999 -9999 -9999 -9999 -9999 -9999 -9999 -9999 -9999 -9999 -9999 -9999 -9999 -9999 -9999 -9999 -9999 -9999 -9999 -9999 -9999 -9999 -9999 -9999 -9999 -9999 -9999 -9999 -9999 -9999 -9999 -9999 -9999 -9999 -9999 -9999 -9999 -9999 -9999 -9999 -9999 -9999 -9999 -9999 -9999 -9999 -9999 -9999 -9999 -9999 -9999 -9999 -9999 -9999 -9999 -9999 -9999 -9999 -9999
-9999 -9999 -9999 -9999 -9999 -9999 -9999 -9999 -9999 -9999 -9999 -9999 -9999 -9999 -9999 -9999 -9999 -9999 -9999 -9999 -9999 -9999 -9999 -9999 -9999 -9999 -9999 -9999 -9999 -9999 -9999 -9999 -9999 -9999 -9999 -9999 -9999 -9999 -9999 -9999 245 247 262 260 253 267 257 267 263 258 273 265 265 269 282 291 274 288 278 291 283 273 293 288 283 288 298 317 310 313 317 322 343 340 358 351 332 341 327 327 311 297 280 277 276 263 276 267 279 281 274 275 284 286 286 265 249 238 225 236 255 252 264 260 254 243 252 244 258 248 264 269 265 251 246 253 256 256 235 218 208 233 255 260 242 229 237 245 266 262 285 269 296 303 340 322 302 284 287 297 318 344 363 355 344 326 340 361 380 392 375 400 391 363 380 392 403 382 348 354 357 379 399 396 403 397 384 368 353 341 343 324 311 311 297 293 301 305 312 355 361 336 352 353 354 335 323 315 315 317 302 302 291 277 264 252 239 227 211 196 186 179 168 158 158 165 171 198 205 205 214 201 202 202 187 199 195 200 188 184 183 177 186 177 165 175 185 189 190 180 196 202 208 205 216 219 223 219 206 198 191 188 183 165 173 164 168 161 173 166 159 149 160 155 150 139 142 140 133 134 131 119 116 120 119 114 106 110 121 117 113 106 114 116 106 99 101 100 100 102 113 113 118 107 107 102 96 97 96 97 94 103 100 104 100 102 110 102 95 92 90 100 97 89 89 86 95 89 100 99 93 88 91 99 93 98 106 110 106 98 96 104 94 105 101 94 95 100 113 112 111 118 126 127 116 109 109 126 121 128 141 149 148 144 144 142 136 136 133 124 124 125 125 112 109 119 110 104 112 106 107 104 97 102 88 99 101 96 101 104 102 98 95 87 86 85 97 89 76 75 83 84 76 82 78 83 83 88 76 80 76 75 75 75 75 75 75 75 75 75 75 75 75 75 75 75 75 76 77 80 96 90 106 93 81 75 75 81 82 77 76 83 92 91 85 85 81 78 80 94 127 301 427 231 182 177 226 191 180 210 400 527 336 296 228 196 189 200 211 238 281 327 293 202 187 -9999 -9999 -9999 -9999 -9999 -9999 -9999 -9999 -9999 -9999 -9999 -9999 -9999 -9999 -9999 -9999 -9999 -9999 -9999 -9999 -9999 -9999 -9999 -9999 -9999 -9999 -9999 -9999 -9999 -9999 -9999 -9999 -9999 -9999 -9999 -9999 -9999 -9999 -9999 -9999 -9999 -9999 -9999 -9999 -9999 -9999 -9999 -9999 -9999 -9999 -9999 -9999 -9999 -9999 -9999 -9999 -9999 -9999 -9999 -9999 -9999 -9999 -9999 -9999 -9999 -9999 -9999 -9999 -9999 -9999 -9999 -9999 -9999 -9999 -9999 -9999 -9999 -9999 -9999 -9999 -9999
-9999 -9999 -9999 -9999 -9999 -9999 -9999 -9999 -9999 -9999 -9999 -9999 -9999 -9999 -9999 -9999 -9999 -9999 -9999 -9999 -9999 -9999 -9999 -9999 -9999 -9999 -9999 -9999 -9999 -9999 -9999 -9999 -9999 -9999 -9999 -9999 -9999 -9999 -9999 -9999 249 243 251 249 249 263 249 258 259 256 268 261 261 258 273 286 286 282 292 286 300 283 284 298 304 291 303 316 324 320 332 327 349 365 357 362 334 320 313 317 311 298 291 276 267 271 286 273 286 290 282 285 294 281 269 268 255 254 232 229 243 246 263 276 266 268 246 261 257 268 272 265 266 259 258 244 241 244 237 226 209 243 299 270 248 239 248 250 271 271 288 288 298 309 330 340 306 290 306 308 328 338 352 342 343 326 343 352 357 354 363 408 381 364 386 410 409 387 363 348 356 361 364 381 411 410 399 388 370 354 357 342 325 320 298 308 323 356 354 367 351 329 323 326 328 314 314 301 298 301 274 280 280 272 257 242 225 213 208 207 201 189 172 160 176 179 189 221 233 227 229 219 224 216 200 210 203 200 187 191 185 199 201 191 168 174 182 194 195 191 201 207 207 192 198 206 194 206 207 200 193 185 180 159 168 162 154 153 165 169 167 152 147 157 153 153 139 134 129 125 124 125 132 122 112 112 112 115 125 120 123 116 117 111 105 107 113 106 104 99 107 104 107 104 99 96 95 96 97 96 94 97 93 98 93 93 105 94 89 89 92 93 91 96 101 101 99 90 99 105 102 91 91 100 100 101 110 113 104 99 93 107 99 98 105 97 98 109 119 125 120 114 128 122 111 112 114 115 130 130 148 152 148 141 138 136 133 130 127 128 127 116 109 118 122 112 108 115 117 121 113 109 107 98 95 107 109 100 112 112 116 102 100 103 100 94 87 84 77 76 78 85 83 100 92 102 98 95 81 93 95 89 78 75 75 75 75 75 75 75 75 75 75 75 75 75 75 82 90 96 103 109 128 112 88 76 75 76 75 75 77 86 93 93 89 88 78 75 79 99 139 376 485 269 183 174 199 190 180 189 273 497 370 263 233 193 186 190 198 220 274 296 278 205 -9999 -9999 -9999 -9999 -9999 -9999 -9999 -9999 -9999 -9999 -9999 -9999 -9999 -9999 -9999 -9999 -9999 -9999 -9999 -9999 -9999 -9999 -9999 -9999 -9999 -9999 -9999 -9999 -9999 -9999 -9999 -9999 -9999 -9999 -9999 -9999 -9999 -9999 -9999 -9999 -9999 -9999 -9999 -9999 -9999 -9999 -9999 -9999 -9999 -9999 -9999 -9999 -9999 -9999 -9999 -9999 -9999 -9999 -9999 -9999 -9999 -9999 -9999 -9999 -9999 -9999 -9999 -9999 -9999 -9999 -9999 -9999 -9999 -9999 -9999 -9999 -9999 -9999 -9999 -9999 -9999 -9999
-9999 -9999 -9999 -9999 -9999 -9999 -9999 -9999 -9999 -9999 -9999 -9999 -9999 -9999 -9999 -9999 -9999 -9999 -9999 -9999 -9999 -9999 -9999 -9999 -9999 -9999 -9999 -9999 -9999 -9999 -9999 -9999 -9999 -9999 -9999 -9999 -9999 -9999 -9999 -9999 227 226 232 238 239 249 241 250 246 247 243 247 247 251 263 270 281 291 293 299 300 291 279 285 307 305 300 304 318 337 334 350 340 356 350 355 334 312 311 296 297 287 295 276 279 283 289 286 286 304 297 288 280 274 274 256 248 235 236 239 253 260 257 269 278 274 254 266 267 277 273 267 257 247 244 235 232 231 222 217 217 258 283 258 247 252 265 271 293 283 310 306 323 325 332 341 325 311 325 326 339 330 343 350 329 321 344 354 340 339 378 391 369 365 394 401 403 377 363 348 374 358 359 379 402 411 407 407 385 371 351 325 310 307 303 328 342 367 359 354 354 357 342 326 312 301 285 280 275 267 244 247 252 259 254 240 232 227 221 212 200 180 162 161 179 185 207 202 245 246 241 233 239 225 213 214 212 197 195 202 204 210 203 184 174 173 187 194 199 202 201 194 196 185 188 182 175 176 176 172 176 165 170 157 150 160 147 144 151 166 160 156 144 146 149 144 148 146 144 140 142 145 136 120 109 110 117 121 129 129 120 116 113 110 112 118 116 106 102 99 99 97 96 98 96 106 104 107 106 107 101 93 95 91 90 91 94 90 92 92 92 95 91 104 108 106 98 93 99 107 101 98 98 96 105 101 117 122 114 101 97 109 109 100 110 111 103 110 119 131 127 118 130 128 116 118 126 116 123 136 147 154 149 152 149 144 137 128 128 117 113 117 124 122 115 115 121 129 128 130 122 113 101 97 103 116 117 105 114 118 111 112 116 105 97 99 98 91 85 77 78 81 97 96 103 106 117 111 94 110 117 101 100 80 76 75 75 75 75 75 75 75 75 75 75 75 75 78 88 93 103 114 142 121 90 76 75 75 75 75 77 88 91 85 93 95 80 76 86 103 132 288 467 294 184 177 245 182 170 176 216 400 321 228 279 201 182 191 199 203 248 262 257 215 -9999 -9999 -9999 -9999 -9999 -9999 -9999 -9999 -9999 -9999 -9999 -9999 -9999 -9999 -9999 -9999 -9999 -9999 -9999 -9999 -9999 -9999 -9999 -9999 -9999 -9999 -9999 -9999 -9999 -9999 -9999 -9999 -9999 -9999 -9999 -9999 -9999 -9999 -9999 -9999 -9999 -9999 -9999 -9999 -9999 -9999 -9999 -9999 -9999 -9999 -9999 -9999 -9999 -9999 -9999 -9999 -9999 -9999 -9999 -9999 -9999 -9999 -9999 -9999 -9999 -9999 -9999 -9999 -9999 -9999 -9999 -9999 -9999 -9999 -9999 -9999 -9999 -9999 -9999 -9999 -9999 -9999
-9999 -9999 -9999 -9999 -9999 -9999 -9999 -9999 -9999 -9999 -9999 -9999 -9999 -9999 -9999 -9999 -9999 -9999 -9999 -9999 -9999 -9999 -9999 -9999 -9999 -9999 -9999 -9999 -9999 -9999 -9999 -9999 -9999 -9999 -9999 -9999 -9999 -9999 -9999 212 219 227 219 225 229 227 233 232 239 239 259 267 267 266 259 262 277 293 301 301 312 301 286 300 293 312 321 304 323 330 339 358 356 352 338 350 338 317 302 303 301 297 284 274 282 294 290 299 299 295 301 282 271 272 265 271 251 233 253 263 249 254 266 281 286 280 269 271 285 289 277 269 258 260 252 242 252 254 238 221 218 247 249 235 240 245 262 284 298 289 311 337 337 351 343 341 340 335 332 338 341 332 325 334 329 318 343 331 328 353 362 386 362 372 384 378 395 379 354 341 360 354 353 361 376 394 401 418 393 378 338 315 323 316 310 320 339 372 389 381 372 361 357 346 334 324 304 276 258 237 210 206 220 236 251 253 244 233 219 196 173 159 163 167 176 187 207 215 248 260 254 246 244 238 226 224 218 207 206 207 222 215 203 196 184 177 182 191 200 203 201 187 184 176 174 172 167 164 166 157 155 153 152 154 144 144 142 138 140 152 158 150 146 136 148 138 142 138 141 140 132 129 126 113 112 120 120 129 134 127 122 126 119 121 124 122 110 110 112 110 105 99 106 104 108 108 113 118 112 110 99 99 107 103 98 91 91 90 106 100 103 100 104 97 106 108 98 95 100 110 110 113 106 104 104 109 112 125 120 107 107 104 108 109 122 121 110 113 117 127 136 125 126 135 121 125 129 126 132 142 160 158 155 150 145 136 123 124 122 127 117 127 133 123 116 120 132 130 122 114 110 100 100 105 107 123 119 111 117 127 120 117 111 105 109 102 100 93 85 76 78 80 78 89 98 110 120 129 116 114 130 116 113 93 82 76 77 80 77 75 75 75 75 75 75 75 75 76 78 78 84 108 133 111 87 76 75 75 75 76 78 84 86 79 93 87 79 76 90 108 133 200 431 262 182 176 313 200 169 170 201 347 313 219 259 213 180 185 190 202 251 249 258 219 195 -9999 -9999 -9999 -9999 -9999 -9999 -9999 -9999 -9999 -9999 -9999 -9999 -9999 -9999 -9999 -9999 -9999 -9999 -9999 -9999 -9999 -9999 -9999 -9999 -9999 -9999 -9999 -9999 -9999 -9999 -9999 -9999 -9999 -9999 -9999 -9999 -9999 -9999 -9999 -9999 -9999 -9999 -9999 -9999 -9999 -9999 -9999 -9999 -9999 -9999 -9999 -9999 -9999 -9999 -9999 -9999 -9999 -9999 -9999 -9999 -9999 -9999 -9999 -9999 -9999 -9999 -9999 -9999 -9999 -9999 -9999 -9999 -9999 -9999 -9999 -9999 -9999 -9999 -9999 -9999 -9999
-9999 -9999 -9999 -9999 -9999 -9999 -9999 -9999 -9999 -9999 -9999 -9999 -9999 -9999 -9999 -9999 -9999 -9999 -9999 -9999 -9999 -9999 -9999 -9999 -9999 -9999 -9999 -9999 -9999 -9999 -9999 -9999 -9999 -9999 -9999 -9999 -9999 -9999 -9999 235 228 243 225 243 239 238 247 251 259 251 248 263 263 277 277 265 269 276 295 306 320 308 295 306 303 303 317 320 313 324 336 351 360 358 349 336 345 331 311 310 317 302 281 287 293 302 300 294 284 278 288 277 273 270 264 256 244 246 261 270 261 270 267 287 288 299 283 290 291 285 281 277 264 260 251 258 270 255 236 227 218 223 221 230 248 258 257 270 292 306 320 352 351 334 346 324 323 328 317 331 332 326 320 337 320 320 326 322 340 345 335 366 349 353 357 374 371 376 352 348 349 343 341 349 355 370 382 395 400 394 338 330 324 316 330 333 371 407 407 377 330 315 312 314 317 314 308 294 273 273 251 220 197 203 238 235 222 207 189 170 162 165 169 175 182 197 213 235 246 269 266 259 256 249 245 233 214 217 219 225 231 219 199 201 192 191 184 192 203 198 190 182 183 187 197 186 184 179 173 171 171 160 154 150 156 158 153 152 141 136 146 142 142 137 131 129 127 138 135 139 128 115 111 109 115 119 127 132 136 130 128 131 121 131 125 114 111 124 116 116 101 105 115 106 112 113 119 116 116 106 99 112 105 97 94 100 96 100 111 101 109 107 106 102 114 112 108 100 104 118 122 118 114 110 106 113 117 119 118 111 106 107 120 114 119 130 124 110 125 126 135 137 129 137 125 129 133 139 132 142 153 146 140 136 132 130 133 137 127 123 121 132 123 116 120 129 134 127 121 113 106 109 114 110 115 123 127 116 122 129 124 113 111 113 113 106 100 104 90 83 77 89 78 87 102 105 112 115 119 120 128 140 125 107 102 83 81 83 78 75 75 75 75 75 75 75 75 75 75 79 79 86 111 105 78 75 75 75 75 76 80 87 84 76 83 76 76 79 91 111 165 318 448 251 172 194 374 208 167 164 180 228 272 208 205 215 180 184 208 228 277 255 253 263 205 -9999 -9999 -9999 -9999 -9999 -9999 -9999 -9999 -9999 -9999 -9999 -9999 -9999 -9999 -9999 -9999 -9999 -9999 -9999 -9999 -9999 -9999 -9999 -9999 -9999 -9999 -9999 -9999 -9999 -9999 -9999 -9999 -9999 -9999 -9999 -9999 -9999 -9999 -9999 -9999 -9999 -9999 -9999 -9999 -9999 -9999 -9999 -9999 -9999 -9999 -9999 -9999 -9999 -9999 -9999 -9999 -9999 -9999 -9999 -9999 -9999 -9999 -9999 -9999 -9999 -9999 -9999 -9999 -9999 -9999 -9999 -9999 -9999 -9999 -9999 -9999 -9999 -9999 -9999 -9999 -9999
-9999 -9999 -9999 -9999 -9999 -9999 -9999 -9999 -9999 -9999 -9999 -9999 -9999 -9999 -9999 -9999 -9999 -9999 -9999 -9999 -9999 -9999 -9999 -9999 -9999 -9999 -9999 -9999 -9999 -9999 -9999 -9999 -9999 -9999 -9999 -9999 -9999 -9999 -9999 233 234 248 233 234 252 246 249 260 267 273 264 257 257 265 280 281 267 275 284 296 309 318 297 302 314 300 306 318 321 327 354 352 347 353 339 331 326 338 328 327 306 305 290 297 304 306 302 293 283 273 271 273 267 262 266 250 255 261 263 267 276 278 275 279 297 304 302 295 293 281 288 279 276 265 261 271 270 250 243 232 214 227 237 226 235 258 271 272 283 299 325 352 341 323 333 323 312 315 305 314 330 311 318 322 316 305 315 325 338 336 327 351 358 332 375 357 369 372 343 341 345 334 344 372 384 389 392 384 393 393 353 337 331 344 364 387 393 402 395 365 289 254 252 270 280 266 279 280 250 240 245 233 216 188 205 204 191 182 172 164 172 171 170 178 185 198 213 223 254 269 280 274 266 259 250 242 228 237 247 242 228 213 204 207 202 203 193 201 207 200 194 185 199 206 198 200 198 195 189 179 177 171 171 166 165 158 150 158 154 141 139 135 132 134 135 130 120 128 125 125 116 114 123 114 120 117 124 134 137 140 134 137 132 130 119 116 117 127 123 111 102 110 117 112 120 121 126 121 115 101 108 108 97 102 105 100 99 108 115 109 114 114 114 104 115 120 112 103 112 124 127 118 119 108 105 115 116 125 121 111 116 111 126 119 119 132 131 115 123 138 133 141 130 138 134 128 137 146 137 143 157 153 144 141 134 134 145 137 134 123 132 126 120 127 130 133 125 112 112 111 120 118 111 110 119 127 128 126 132 133 124 121 120 117 115 113 108 103 93 81 79 93 81 81 96 92 96 104 117 133 145 150 143 124 115 99 91 85 77 75 75 75 75 75 75 75 75 75 76 91 96 93 109 108 79 75 75 75 75 76 77 83 81 75 76 77 78 88 111 189 331 361 439 224 164 183 366 199 165 158 170 194 312 224 184 193 180 182 222 308 381 273 227 220 208 -9999 -9999 -9999 -9999 -9999 -9999 -9999 -9999 -9999 -9999 -9999 -9999 -9999 -9999 -9999 -9999 -9999 -9999 -9999 -9999 -9999 -9999 -9999 -9999 -9999 -9999 -9999 -9999 -9999 -9999 -9999 -9999 -9999 -9999 -9999 -9999 -9999 -9999 -9999 -9999 -9999 -9999 -9999 -9999 -9999 -9999 -9999 -9999 -9999 -9999 -9999 -9999 -9999 -9999 -9999 -9999 -9999 -9999 -9999 -9999 -9999 -9999 -9999 -9999 -9999 -9999 -9999 -9999 -9999 -9999 -9999 -9999 -9999 -9999 -9999 -9999 -9999 -9999 -9999 -9999 -9999
-9999 -9999 -9999 -9999 -9999 -9999 -9999 -9999 -9999 -9999 -9999 -9999 -9999 -9999 -9999 -9999 -9999 -9999 -9999 -9999 -9999 -9999 -9999 -9999 -9999 -9999 -9999 -9999 -9999 -9999 -9999 -9999 -9999 -9999 -9999 -9999 -9999 -9999 -9999 228 243 259 256 234 238 253 259 257 262 278 284 263 263 278 273 288 275 285 277 288 303 315 311 302 316 311 322 325 336 338 347 347 331 346 336 336 332 322 327 331 308 299 296 309 311 297 289 294 282 282 268 254 255 251 260 259 262 263 267 279 282 283 280 279 296 301 295 284 278 279 271 275 265 269 268 261 264 256 243 225 218 232 244 243 232 242 248 255 282 297 321 352 349 329 316 323 305 301 298 315 315 311 305 319 303 314 331 334 326 315 315 323 351 328 354 343 359 353 339 332 336 340 359 387 407 407 411 396 388 392 371 351 368 399 412 410 391 366 357 320 271 247 231 230 228 220 228 252 239 205 197 184 183 183 176 182 180 173 167 169 172 180 181 177 182 186 193 202 243 271 291 286 276 273 267 258 249 256 261 252 233 226 221 212 213 210 204 213 211 200 193 203 213 213 211 207 200 191 180 175 167 164 163 151 153 144 142 143 158 156 156 145 130 124 122 124 122 119 117 118 114 124 127 117 118 123 127 136 143 147 140 141 131 126 123 126 122 130 121 107 104 117 126 118 129 130 128 119 104 107 114 106 97 107 115 111 100 108 124 119 117 123 113 112 121 119 107 102 110 118 126 124 124 108 113 125 120 125 128 130 118 114 128 120 125 128 131 121 119 129 142 144 141 139 143 131 139 152 146 141 157 152 144 139 142 144 144 137 127 131 129 129 130 135 138 131 119 119 126 128 126 122 117 120 118 121 129 131 128 122 116 117 110 103 104 106 94 84 83 92 93 92 100 84 84 87 96 107 118 126 136 155 159 132 112 104 88 79 83 80 75 75 75 75 75 75 75 75 75 84 81 88 109 104 78 75 75 75 75 75 75 78 76 75 75 75 80 94 132 250 285 321 298 189 160 166 292 194 157 163 167 185 291 283 191 172 172 196 272 405 406 280 239 212 210 -9999 -9999 -9999 -9999 -9999 -9999 -9999 -9999 -9999 -9999 -9999 -9999 -9999 -9999 -9999 -9999 -9999 -9999 -9999 -9999 -9999 -9999 -9999 -9999 -9999 -9999 -9999 -9999 -9999 -9999 -9999 -9999 -9999 -9999 -9999 -9999 -9999 -9999 -9999 -9999 -9999 -9999 -9999 -9999 -9999 -9999 -9999 -9999 -9999 -9999 -9999 -9999 -9999 -9999 -9999 -9999 -9999 -9999 -9999 -9999 -9999 -9999 -9999 -9999 -9999 -9999 -9999 -9999 -9999 -9999 -9999 -9999 -9999 -9999 -9999 -9999 -9999 -9999 -9999 -9999 -9999
-9999 -9999 -9999 -9999 -9999 -9999 -9999 -9999 -9999 -9999 -9999 -9999 -9999 -9999 -9999 -9999 -9999 -9999 -9999 -9999 -9999 -9999 -9999 -9999 -9999 -9999 -9999 -9999 -9999 -9999 -9999 -9999 -9999 -9999 -9999 -9999 -9999 -9999 260 237 236 256 263 251 243 245 254 272 270 275 285 271 271 282 287 288 277 292 290 282 303 300 311 314 326 323 321 337 347 347 340 345 328 344 344 348 351 334 316 327 320 314 312 312 304 298 288 283 285 266 262 263 269 263 278 262 271 267 276 291 284 298 292 296 301 289 282 282 279 273 268 261 254 249 257 246 248 242 230 220 220 239 247 252 255 259 271 258 271 278 295 332 338 334 317 304 316 304 287 292 291 297 310 303 308 324 320 313 309 325 333 324 319 323 328 325 335 335 331 341 356 352 369 385 381 395 419 409 409 413 409 408 422 433 423 399 371 348 340 314 262 239 235 231 224 223 208 226 205 186 177 178 174 173 171 167 168 165 170 184 175 186 193 186 185 194 196 204 217 266 292 299 291 285 280 266 263 263 252 247 244 248 242 232 216 217 220 207 199 201 211 223 210 198 192 189 186 179 175 166 161 155 152 154 150 153 160 142 140 139 135 132 133 143 138 126 119 118 115 115 118 133 130 118 118 130 129 138 148 150 143 134 133 128 124 128 132 128 115 105 112 115 129 126 131 123 116 110 104 114 114 108 98 108 117 109 103 109 119 126 125 125 116 117 123 116 106 112 116 124 134 130 127 111 116 126 125 126 134 130 122 119 120 128 125 128 136 129 120 126 139 151 153 144 145 137 138 155 155 150 160 156 144 154 153 150 137 136 135 131 140 137 135 143 137 129 123 122 135 130 128 137 126 129 132 140 133 131 127 124 116 112 108 103 95 85 87 89 100 108 105 109 97 91 93 92 98 104 109 115 129 142 156 155 131 118 97 87 88 81 75 75 75 75 75 75 75 75 75 76 81 81 113 118 78 75 75 75 75 75 75 75 75 75 75 75 78 93 151 208 160 278 200 165 148 155 236 181 152 167 180 184 238 253 189 167 176 207 324 322 288 264 256 219 208 -9999 -9999 -9999 -9999 -9999 -9999 -9999 -9999 -9999 -9999 -9999 -9999 -9999 -9999 -9999 -9999 -9999 -9999 -9999 -9999 -9999 -9999 -9999 -9999 -9999 -9999 -9999 -9999 -9999 -9999 -9999 -9999 -9999 -9999 -9999 -9999 -9999 -9999 -9999 -9999 -9999 -9999 -9999 -9999 -9999 -9999 -9999 -9999 -9999 -9999 -9999 -9999 -9999 -9999 -9999 -9999 -9999 -9999 -9999 -9999 -9999 -9999 -9999 -9999 -9999 -9999 -9999 -9999 -9999 -9999 -9999 -9999 -9999 -9999 -9999 -9999 -9999 -9999 -9999 -9999 -9999
-9999 -9999 -9999 -9999 -9999 -9999 -9999 -9999 -9999 -9999 -9999 -9999 -9999 -9999 -9999 -9999 -9999 -9999 -9999 -9999 -9999 -9999 -9999 -9999 -9999 -9999 -9999 -9999 -9999 -9999 -9999 -9999 -9999 -9999 -9999 -9999 -9999 -9999 262 238 238 240 261 262 249 264 250 263 278 284 294 275 275 277 296 296 282 287 306 296 290 305 314 324 331 341 335 350 338 341 335 336 325 338 344 344 333 343 326 314 321 324 318 302 296 298 295 275 269 266 276 284 280 264 278 263 273 286 280 290 295 289 300 303 289 283 275 266 272 263 266 264 267 258 245 235 231 229 219 231 227 231 243 248 268 278 292 269 288 308 309 321 322 321 330 317 298 302 287 316 306 301 296 303 301 307 308 310 320 339 351 345 339 355 358 349 345 333 344 345 346 355 357 360 366 397 418 420 421 419 420 407 412 408 405 388 378 380 360 332 310 277 269 263 253 227 204 206 198 182 192 190 180 180 179 175 174 170 179 184 182 193 199 187 190 198 204 220 225 249 290 310 303 293 276 271 276 259 250 258 260 259 252 237 219 222 215 210 209 215 223 213 212 209 199 194 188 175 167 163 167 164 162 166 166 169 157 146 138 138 143 144 152 144 128 126 130 123 118 125 122 137 132 123 117 131 132 134 147 151 139 138 132 131 138 137 134 122 116 109 119 122 131 132 122 115 108 111 115 119 107 100 103 108 118 113 108 106 119 125 131 130 117 125 128 116 107 122 121 121 135 132 124 110 109 118 128 129 135 136 127 129 118 129 129 138 132 137 131 124 131 137 145 151 152 152 138 149 158 154 164 151 151 162 153 143 146 136 141 135 139 148 140 147 132 129 127 126 136 133 142 141 139 140 134 128 119 116 113 111 108 108 100 99 91 99 101 98 108 117 106 98 108 108 103 96 90 101 107 116 122 129 141 151 151 118 102 87 81 76 75 75 75 75 75 75 75 75 79 84 98 94 104 87 75 75 75 75 75 75 75 75 75 75 75 75 76 82 160 146 185 227 178 158 147 146 214 196 154 161 179 174 198 280 193 163 179 193 284 293 269 243 268 222 207 -9999 -9999 -9999 -9999 -9999 -9999 -9999 -9999 -9999 -9999 -9999 -9999 -9999 -9999 -9999 -9999 -9999 -9999 -9999 -9999 -9999 -9999 -9999 -9999 -9999 -9999 -9999 -9999 -9999 -9999 -9999 -9999 -9999 -9999 -9999 -9999 -9999 -9999 -9999 -9999 -9999 -9999 -9999 -9999 -9999 -9999 -9999 -9999 -9999 -9999 -9999 -9999 -9999 -9999 -9999 -9999 -9999 -9999 -9999 -9999 -9999 -9999 -9999 -9999 -9999 -9999 -9999 -9999 -9999 -9999 -9999 -9999 -9999 -9999 -9999 -9999 -9999 -9999 -9999 -9999 -9999
-9999 -9999 -9999 -9999 -9999 -9999 -9999 -9999 -9999 -9999 -9999 -9999 -9999 -9999 -9999 -9999 -9999 -9999 -9999 -9999 -9999 -9999 -9999 -9999 -9999 -9999 -9999 -9999 -9999 -9999 -9999 -9999 -9999 -9999 -9999 -9999 -9999 -9999 264 247 247 251 260 273 257 265 260 255 266 275 286 281 281 284 301 312 299 289 311 309 291 299 324 337 330 346 345 341 343 330 338 328 319 326 339 339 340 325 323 313 305 318 318 302 296 284 281 279 278 287 298 296 287 269 272 275 275 290 289 300 302 299 299 290 286 281 277 268 258 253 245 246 244 245 238 237 243 239 229 243 236 232 245 264 276 281 300 298 293 315 338 332 311 308 318 301 295 289 289 309 315 321 319 325 314 328 329 330 322 344 362 370 366 374 383 372 354 352 341 350 364 349 365 369 384 394 406 404 395 385 388 383 392 375 340 315 310 342 340 307 283 272 254 231 214 205 193 195 188 191 212 202 190 184 181 179 175 171 174 181 189 201 208 191 201 205 216 230 235 239 234 290 310 290 292 292 281 276 269 270 267 261 244 222 223 224 218 220 223 223 212 204 195 199 196 184 181 171 167 179 174 178 178 181 182 170 159 155 151 155 153 150 140 131 123 135 133 123 129 125 133 138 127 118 119 133 142 139 146 150 141 136 134 141 143 136 126 117 109 111 125 126 135 132 128 122 111 117 123 112 102 108 107 107 120 123 113 105 114 121 128 134 122 131 131 120 108 121 123 129 132 130 123 108 115 121 130 139 138 140 130 136 127 127 129 131 138 139 137 132 129 139 152 158 156 156 145 148 161 169 163 154 161 160 151 155 143 149 142 140 144 149 148 137 136 139 126 129 139 138 146 148 141 136 124 123 123 119 117 114 110 104 99 101 107 109 106 104 111 113 102 106 116 115 109 101 91 95 106 114 114 124 136 142 151 122 111 89 75 75 75 75 75 75 75 75 75 82 81 97 101 104 84 75 75 75 75 75 75 75 75 75 75 75 75 78 85 82 161 127 171 181 151 148 148 146 243 226 148 149 173 164 173 237 218 163 193 192 237 299 262 241 234 259 257 216 -9999 -9999 -9999 -9999 -9999 -9999 -9999 -9999 -9999 -9999 -9999 -9999 -9999 -9999 -9999 -9999 -9999 -9999 -9999 -9999 -9999 -9999 -9999 -9999 -9999 -9999 -9999 -9999 -9999 -9999 -9999 -9999 -9999 -9999 -9999 -9999 -9999 -9999 -9999 -9999 -9999 -9999 -9999 -9999 -9999 -9999 -9999 -9999 -9999 -9999 -9999 -9999 -9999 -9999 -9999 -9999 -9999 -9999 -9999 -9999 -9999 -9999 -9999 -9999 -9999 -9999 -9999 -9999 -9999 -9999 -9999 -9999 -9999 -9999 -9999 -9999 -9999 -9999 -9999 -9999
-9999 -9999 -9999 -9999 -9999 -9999 -9999 -9999 -9999 -9999 -9999 -9999 -9999 -9999 -9999 -9999 -9999 -9999 -9999 -9999 -9999 -9999 -9999 -9999 -9999 -9999 -9999 -9999 -9999 -9999 -9999 -9999 -9999 -9999 -9999 -9999 -9999 -9999 268 245 249 264 260 276 267 271 264 252 253 261 262 272 272 286 297 320 315 293 306 318 301 302 320 337 340 339 335 337 337 327 331 331 315 323 335 329 336 335 322 321 309 315 311 312 300 289 292 281 298 295 304 293 277 273 281 293 286 279 295 300 310 301 296 285 272 270 267 259 250 254 259 261 255 250 249 244 237 228 237 251 236 233 247 258 264 290 281 301 308 321 326 316 315 296 313 302 287 282 292 298 315 325 337 336 324 327 339 337 337 331 338 363 382 395 403 384 362 367 360 343 361 358 354 365 378 395 396 361 367 368 366 352 346 300 258 243 249 244 262 286 276 252 236 231 236 225 190 194 197 220 228 218 209 203 187 180 176 173 174 181 195 211 203 199 198 206 211 215 221 231 214 233 283 287 297 298 292 292 284 265 251 242 230 221 224 233 227 226 219 215 209 197 187 179 177 175 176 180 179 189 183 190 190 183 170 161 147 141 141 138 134 130 127 127 127 141 134 124 135 129 139 140 128 119 124 125 136 146 151 150 143 143 142 142 134 129 122 111 119 117 122 134 134 126 120 117 112 123 120 112 103 112 106 118 123 120 112 109 116 128 135 133 129 137 128 116 110 119 131 134 130 121 116 111 121 124 129 143 143 137 137 140 128 127 139 132 137 146 144 143 133 136 146 163 164 163 156 158 157 177 168 162 169 161 165 151 157 155 146 148 147 155 144 137 138 129 130 139 138 149 146 141 136 130 132 137 133 129 123 112 104 104 102 102 108 115 111 110 120 114 116 112 106 104 103 95 97 93 104 104 113 116 126 136 151 140 116 93 77 75 75 75 75 75 75 75 75 75 78 94 86 99 85 75 75 75 75 75 75 75 75 75 75 75 75 77 95 98 186 116 135 133 138 148 145 145 218 218 146 144 163 158 153 174 183 162 179 182 262 338 266 244 281 442 295 223 -9999 -9999 -9999 -9999 -9999 -9999 -9999 -9999 -9999 -9999 -9999 -9999 -9999 -9999 -9999 -9999 -9999 -9999 -9999 -9999 -9999 -9999 -9999 -9999 -9999 -9999 -9999 -9999 -9999 -9999 -9999 -9999 -9999 -9999 -9999 -9999 -9999 -9999 -9999 -9999 -9999 -9999 -9999 -9999 -9999 -9999 -9999 -9999 -9999 -9999 -9999 -9999 -9999 -9999 -9999 -9999 -9999 -9999 -9999 -9999 -9999 -9999 -9999 -9999 -9999 -9999 -9999 -9999 -9999 -9999 -9999 -9999 -9999 -9999 -9999 -9999 -9999 -9999 -9999 -9999
-9999 -9999 -9999 -9999 -9999 -9999 -9999 -9999 -9999 -9999 -9999 -9999 -9999 -9999 -9999 -9999 -9999 -9999 -9999 -9999 -9999 -9999 -9999 -9999 -9999 -9999 -9999 -9999 -9999 -9999 -9999 -9999 -9999 -9999 -9999 -9999 -9999 -9999 271 252 248 270 261 281 276 272 272 261 249 255 272 263 263 275 290 311 317 300 311 322 313 314 308 337 339 331 331 330 326 340 325 330 325 318 329 326 330 322 330 320 312 299 310 316 300 291 304 289 300 310 291 277 276 283 292 291 301 280 298 308 303 293 288 281 285 279 273 259 262 277 278 267 258 255 240 241 241 238 259 253 241 235 245 262 266 265 271 282 298 305 321 308 306 301 297 306 281 287 312 313 308 314 331 339 341 333 333 337 336 325 338 365 367 402 412 384 388 385 369 363 344 349 355 370 369 388 363 360 339 364 343 330 293 275 255 239 226 217 225 225 240 243 249 261 236 207 189 227 229 233 241 235 225 201 199 189 183 181 178 184 196 207 206 208 203 200 205 204 209 210 208 217 210 214 217 233 251 273 287 269 235 217 219 238 228 233 233 216 205 198 194 184 181 184 184 193 196 195 200 197 187 176 168 160 156 149 147 154 153 144 141 138 129 130 136 146 140 125 138 132 144 139 131 121 131 124 132 137 142 153 147 147 150 139 126 120 112 121 129 125 121 132 132 121 117 120 124 125 115 104 107 116 114 115 127 128 121 108 118 122 129 132 136 129 124 121 116 118 126 138 132 126 119 114 120 129 134 143 146 139 142 143 130 132 138 138 136 145 154 150 138 143 140 152 168 170 165 169 161 169 176 174 177 171 163 163 170 154 155 160 151 158 151 148 135 139 132 146 156 149 143 142 144 138 129 125 119 111 107 111 110 114 116 111 106 116 120 124 127 120 119 116 106 98 99 103 100 101 95 101 113 122 125 134 136 133 121 107 84 82 76 75 75 75 75 75 75 75 77 79 78 86 77 75 75 75 75 75 75 75 75 75 75 75 77 84 89 123 160 102 106 130 139 140 135 142 186 209 145 144 150 152 145 151 171 159 165 184 215 341 268 250 317 401 271 237 -9999 -9999 -9999 -9999 -9999 -9999 -9999 -9999 -9999 -9999 -9999 -9999 -9999 -9999 -9999 -9999 -9999 -9999 -9999 -9999 -9999 -9999 -9999 -9999 -9999 -9999 -9999 -9999 -9999 -9999 -9999 -9999 -9999 -9999 -9999 -9999 -9999 -9999 -9999 -9999 -9999 -9999 -9999 -9999 -9999 -9999 -9999 -9999 -9999 -9999 -9999 -9999 -9999 -9999 -9999 -9999 -9999 -9999 -9999 -9999 -9999 -9999 -9999 -9999 -9999 -9999 -9999 -9999 -9999 -9999 -9999 -9999 -9999 -9999 -9999 -9999 -9999 -9999 -9999 -9999
-9999 -9999 -9999 -9999 -9999 -9999 -9999 -9999 -9999 -9999 -9999 -9999 -9999 -9999 -9999 -9999 -9999 -9999 -9999 -9999 -9999 -9999 -9999 -9999 -9999 -9999 -9999 -9999 -9999 -9999 -9999 -9999 -9999 -9999 -9999 -9999 -9999 -9999 271 252 248 270 261 281 276 272 272 261 249 255 272 263 263 275 290 311 317 300 311 322 313 314 308 337 339 331 331 330 326 340 325 330 325 318 329 326 330 322 330 320 312 299 310 316 300 291 304 289 300 310 291 277 276 283 292 291 301 280 298 308 303 293 288 281 285 279 273 259 262 277 278 267 258 255 240 241 241 238 259 253 241 235 245 262 266 265 271 282 298 305 321 308 306 301 297 306 281 287 312 313 308 314 331 339 341 333 333 337 336 325 338 365 367 402 412 384 388 385 369 363 344 349 355 370 369 388 363 360 339 364 343 330 293 275 255 239 226 217 225 225 240 243 249 261 236 207 189 227 229 233 241 235 225 201 199 189 183 181 178 184 196 207 206 208 203 200 205 204 209 210 208 217 210 214 217 233 251 273 287 269 235 217 219 238 228 233 233 216 205 198 194 184 181 184 184 193 196 195 200 197 187 176 168 160 156 149 147 154 153 144 141 138 129 130 136 146 140 125 138 132 144 139 131 121 131 124 132 137 142 153 147 147 150 139 126 120 112 121 129 125 121 132 132 121 117 120 124 125 115 104 107 116 114 115 127 128 121 108 118 122 129 132 136 129 124 121 116 118 126 138 132 126 119 114 120 129 134 143 146 139 142 143 130 132 138 138 136 145 154 150 138 143 140 152 168 170 165 169 161 169 176 174 177 171 163 163 170 154 155 160 151 158 151 148 135 139 132 146 156 149 143 142 144 138 129 125 119 111 107 111 110 114 116 111 106 116 120 124 127 120 119 116 106 98 99 103 100 101 95 101 113 122 125 134 136 133 121 107 84 82 76 75 75 75 75 75 75 75 77 79 78 86 77 75 75 75 75 75 75 75 75 75 75 75 77 84 89 123 160 102 106 130 139 140 135 142 186 209 145 144 150 152 145 151 171 159 165 184 215 341 268 250 317 401 271 237 -9999 -9999 -9999 -9999 -9999 -9999 -9999 -9999 -9999 -9999 -9999 -9999 -9999 -9999 -9999 -9999 -9999 -9999 -9999 -9999 -9999 -9999 -9999 -9999 -9999 -9999 -9999 -9999 -9999 -9999 -9999 -9999 -9999 -9999 -9999 -9999 -9999 -9999 -9999 -9999 -9999 -9999 -9999 -9999 -9999 -9999 -9999 -9999 -9999 -9999 -9999 -9999 -9999 -9999 -9999 -9999 -9999 -9999 -9999 -9999 -9999 -9999 -9999 -9999 -9999 -9999 -9999 -9999 -9999 -9999 -9999 -9999 -9999 -9999 -9999 -9999 -9999 -9999 -9999 -9999
-9999 -9999 -9999 -9999 -9999 -9999 -9999 -9999 -9999 -9999 -9999 -9999 -9999 -9999 -9999 -9999 -9999 -9999 -9999 -9999 -9999 -9999 -9999 -9999 -9999 -9999 -9999 -9999 -9999 -9999 -9999 -9999 -9999 -9999 -9999 -9999 -9999 281 274 254 248 258 272 281 281 275 289 268 255 269 276 276 276 276 284 299 316 312 318 322 321 333 327 330 331 329 326 337 318 333 328 313 313 311 311 321 329 324 315 308 315 297 308 320 308 310 310 304 309 307 292 283 293 293 299 299 300 289 304 308 291 288 283 294 285 277 264 272 276 282 278 273 270 255 243 251 255 246 252 267 253 243 261 258 262 277 286 284 290 306 319 313 300 291 289 299 284 291 308 326 328 323 333 343 328 323 329 323 318 320 329 341 368 386 388 385 401 395 384 357 358 350 366 382 400 391 362 337 309 323 318 333 307 286 265 246 245 228 217 214 208 215 227 237 217 190 218 231 260 247 253 248 231 209 215 208 197 194 186 194 198 208 209 206 202 194 202 200 195 198 198 205 200 205 195 211 214 224 236 228 212 212 230 255 242 235 223 213 210 203 195 188 189 198 194 208 205 200 189 177 175 175 177 170 155 155 167 161 151 155 153 138 134 136 146 149 136 129 142 137 145 140 132 122 135 126 133 138 147 156 151 149 141 135 130 120 116 128 135 126 131 135 129 117 128 130 122 113 107 107 112 122 118 122 125 126 117 110 117 122 135 141 141 138 132 123 120 122 127 133 135 126 126 119 116 119 127 135 145 143 145 141 134 139 137 144 144 149 161 157 145 147 147 153 163 175 173 180 174 182 187 188 189 184 175 175 174 157 161 170 162 171 156 141 137 146 145 153 151 146 147 139 144 135 128 114 112 113 111 112 121 124 118 114 115 113 124 128 124 113 107 103 103 101 107 107 103 107 102 97 104 114 113 116 120 123 142 118 102 88 76 75 75 75 75 75 75 75 75 75 75 76 75 75 75 75 75 75 75 75 75 75 75 75 75 77 81 116 108 119 116 128 134 129 134 146 183 187 149 134 138 142 145 144 151 163 180 210 197 291 282 265 270 280 260 235 222 -9999 -9999 -9999 -9999 -9999 -9999 -9999 -9999 -9999 -9999 -9999 -9999 -9999 -9999 -9999 -9999 -9999 -9999 -9999 -9999 -9999 -9999 -9999 -9999 -9999 -9999 -9999 -9999 -9999 -9999 -9999 -9999 -9999 -9999 -9999 -9999 -9999 -9999 -9999 -9999 -9999 -9999 -9999 -9999 -9999 -9999 -9999 -9999 -9999 -9999 -9999 -9999 -9999 -9999 -9999 -9999 -9999 -9999 -9999 -9999 -9999 -9999 -9999 -9999 -9999 -9999 -9999 -9999 -9999 -9999 -9999 -9999 -9999 -9999 -9999 -9999 -9999 -9999 -9999
-9999 -9999 -9999 -9999 -9999 -9999 -9999 -9999 -9999 -9999 -9999 -9999 -9999 -9999 -9999 -9999 -9999 -9999 -9999 -9999 -9999 -9999 -9999 -9999 -9999 -9999 -9999 -9999 -9999 -9999 -9999 -9999 -9999 -9999 -9999 -9999 -9999 299 278 255 263 265 263 279 294 282 290 268 270 268 289 288 288 297 276 291 304 320 320 328 341 335 335 327 330 323 322 331 313 319 338 322 314 301 319 322 325 321 312 306 311 301 302 312 317 322 323 322 314 308 297 306 302 303 319 312 309 304 307 305 296 297 288 292 291 279 266 279 292 276 266 269 255 244 253 270 261 260 264 263 241 244 262 277 277 291 303 301 307 320 311 296 294 288 276 276 284 297 300 316 329 330 330 324 318 308 322 308 316 318 328 347 352 358 382 389 410 405 371 372 367 350 368 383 411 383 329 329 308 280 285 285 262 261 261 288 282 257 246 235 221 206 207 200 188 203 242 244 274 268 267 261 249 222 223 226 218 209 196 209 207 216 201 201 199 191 188 194 188 186 190 191 190 198 188 205 203 208 206 195 209 237 267 261 250 238 215 208 202 194 195 196 198 206 201 195 191 186 185 185 179 173 167 156 165 179 172 157 165 161 144 136 137 143 154 152 137 131 144 142 147 138 129 125 135 130 137 144 150 151 142 142 132 130 120 115 126 131 137 136 140 132 122 125 131 127 121 122 111 109 119 127 120 127 129 131 124 118 116 130 131 145 147 139 132 121 121 128 126 140 133 132 130 122 121 117 125 131 136 143 146 152 142 144 143 151 149 154 164 162 151 153 155 161 166 181 188 184 193 184 176 180 187 181 185 186 178 168 171 185 181 165 151 151 150 148 155 157 150 141 132 126 125 123 120 116 116 123 120 115 133 124 127 123 121 128 128 116 115 111 107 107 115 116 111 114 111 115 113 102 101 103 119 127 134 125 136 143 125 99 81 76 75 75 75 75 75 75 75 75 75 75 75 75 75 75 75 75 75 75 75 75 75 75 75 77 76 93 88 112 113 116 127 128 137 144 178 232 237 134 152 176 169 154 153 163 179 202 185 236 324 275 313 303 261 243 222 231 -9999 -9999 -9999 -9999 -9999 -9999 -9999 281 404 -9999 -9999 -9999 -9999 -9999 -9999 -9999 -9999 -9999 -9999 -9999 -9999 -9999 -9999 -9999 -9999 -9999 -9999 -9999 -9999 -9999 -9999 -9999 -9999 -9999 -9999 -9999 -9999 -9999 -9999 -9999 -9999 -9999 -9999 -9999 -9999 -9999 -9999 -9999 -9999 -9999 -9999 -9999 -9999 -9999 -9999 -9999 -9999 -9999 -9999 -9999 -9999 -9999 -9999 -9999 -9999 -9999 -9999 -9999 -9999 -9999 -9999 -9999 -9999 -9999 -9999 -9999 -9999 -9999
-9999 -9999 -9999 -9999 -9999 -9999 -9999 -9999 -9999 -9999 -9999 -9999 -9999 -9999 -9999 -9999 -9999 -9999 -9999 -9999 -9999 -9999 -9999 -9999 -9999 -9999 -9999 -9999 -9999 -9999 -9999 -9999 -9999 -9999 -9999 -9999 -9999 310 274 268 256 278 276 266 281 297 293 289 286 273 298 304 304 300 288 292 293 309 321 338 332 339 331 321 331 321 318 318 317 315 319 322 311 304 305 313 325 318 311 304 298 300 302 310 319 320 317 310 311 318 308 319 320 325 319 325 324 318 314 311 306 294 303 288 281 270 277 289 287 279 269 252 258 257 262 275 271 282 269 264 242 250 268 280 287 283 282 293 297 309 307 297 294 280 276 272 295 309 310 312 326 328 309 310 301 308 302 308 320 331 340 336 346 367 366 363 376 388 375 377 379 360 390 393 389 331 303 291 283 275 277 286 307 324 307 313 293 268 244 245 242 219 195 191 203 215 240 264 289 288 278 263 249 217 241 244 230 220 210 220 212 211 192 188 186 189 187 180 179 178 182 180 181 184 180 193 193 194 188 199 208 247 292 282 271 253 230 220 210 201 211 205 208 210 209 201 199 192 187 172 169 169 164 165 189 178 169 170 169 149 144 144 146 150 158 149 136 137 149 145 141 132 125 136 139 136 141 146 154 146 135 128 126 121 119 127 124 135 142 142 132 125 125 132 136 128 122 116 108 108 117 128 125 130 138 137 131 125 116 126 137 141 140 130 129 127 123 136 131 137 142 135 126 131 126 117 128 136 147 154 151 159 147 151 151 156 153 158 164 172 161 160 168 168 183 188 184 175 182 188 176 173 182 180 176 174 182 184 188 184 180 175 160 162 161 160 162 150 140 136 134 135 138 130 123 121 125 132 116 118 134 127 137 132 131 123 119 116 116 113 121 117 116 127 125 118 115 117 118 111 108 100 108 120 134 146 135 143 154 119 90 81 75 75 75 75 75 75 75 75 75 75 75 75 75 75 75 75 75 75 75 75 75 75 78 86 83 121 117 98 107 129 134 128 131 144 197 280 294 140 142 182 191 161 157 162 168 177 191 202 294 291 381 389 275 249 231 246 230 -9999 -9999 -9999 -9999 -9999 266 285 501 582 666 -9999 -9999 -9999 -9999 -9999 -9999 -9999 -9999 -9999 -9999 -9999 -9999 -9999 -9999 -9999 -9999 -9999 -9999 -9999 -9999 -9999 -9999 -9999 -9999 -9999 -9999 -9999 -9999 -9999 -9999 -9999 -9999 -9999 -9999 -9999 -9999 -9999 -9999 -9999 -9999 -9999 -9999 -9999 -9999 -9999 -9999 -9999 -9999 -9999 -9999 -9999 -9999 -9999 -9999 -9999 -9999 -9999 -9999 -9999 -9999 -9999 -9999 -9999 -9999 -9999 -9999 -9999
-9999 -9999 -9999 -9999 -9999 -9999 -9999 -9999 -9999 -9999 -9999 -9999 -9999 -9999 -9999 -9999 -9999 -9999 -9999 -9999 -9999 -9999 -9999 -9999 -9999 -9999 -9999 -9999 -9999 -9999 -9999 -9999 -9999 -9999 -9999 -9999 -9999 296 296 282 269 265 291 286 280 288 301 313 312 284 306 314 314 310 297 305 313 307 328 332 335 329 324 320 314 331 315 308 321 306 307 317 315 297 307 317 314 323 317 314 305 286 302 308 304 316 305 301 316 317 329 331 332 331 318 312 320 310 305 315 309 304 292 293 282 279 291 292 276 267 259 262 261 277 263 281 274 273 255 248 253 255 256 274 272 277 281 296 309 314 308 313 296 303 289 265 289 299 331 325 324 313 310 295 294 298 311 316 327 344 358 349 360 365 355 381 382 394 388 390 396 364 369 387 388 344 307 286 276 271 295 319 311 321 296 275 264 246 227 216 223 200 197 222 225 234 255 287 303 289 260 233 224 229 256 249 233 235 225 228 220 200 193 191 191 187 182 180 180 175 175 171 172 171 180 181 184 186 180 203 198 208 229 299 290 263 243 227 213 218 220 219 214 208 206 197 186 179 176 173 188 181 182 191 191 179 187 169 150 151 155 151 153 155 149 139 134 144 151 151 143 134 126 140 146 140 147 152 154 145 136 128 120 129 126 132 129 136 145 138 131 126 137 141 134 131 125 112 111 112 116 128 132 126 135 142 133 125 118 123 127 132 143 136 140 133 121 133 138 135 148 142 135 135 127 122 128 131 138 147 153 161 151 155 161 162 162 167 168 180 173 172 180 180 178 184 175 170 178 184 176 165 172 179 166 168 181 179 185 179 173 178 180 178 175 156 147 150 148 145 146 136 130 130 127 125 132 129 119 126 133 137 141 132 128 127 127 126 125 113 121 126 133 127 125 124 126 121 115 111 102 102 105 116 129 144 150 142 156 142 99 82 76 75 75 75 75 75 75 75 75 75 75 75 75 75 75 75 75 75 75 75 75 75 84 90 97 156 133 107 127 132 138 125 134 149 165 206 296 141 138 206 203 171 156 163 174 186 225 196 247 308 401 463 281 250 237 248 250 240 242 255 288 320 296 283 484 538 638 -9999 -9999 -9999 -9999 -9999 -9999 -9999 -9999 -9999 -9999 -9999 -9999 -9999 -9999 -9999 -9999 -9999 -9999 -9999 -9999 -9999 -9999 -9999 -9999 -9999 -9999 -9999 -9999 -9999 -9999 -9999 -9999 -9999 -9999 -9999 -9999 -9999 -9999 -9999 -9999 -9999 -9999 -9999 -9999 -9999 -9999 -9999 -9999 -9999 -9999 -9999 -9999 -9999 -9999 -9999 -9999 -9999 -9999 -9999 -9999 -9999 -9999 -9999 -9999 -9999 -9999 -9999
-9999 -9999 -9999 -9999 -9999 -9999 -9999 -9999 -9999 -9999 -9999 -9999 -9999 -9999 -9999 -9999 -9999 -9999 -9999 -9999 -9999 -9999 -9999 -9999 -9999 -9999 -9999 -9999 -9999 -9999 -9999 -9999 -9999 -9999 -9999 -9999 366 313 299 275 291 280 278 303 301 306 302 312 342 298 297 323 323 309 307 315 321 317 330 345 340 334 332 327 314 316 318 305 308 310 306 313 308 301 299 315 304 316 319 315 305 292 289 294 310 298 298 294 312 312 329 323 325 325 319 303 304 302 301 314 315 306 298 283 277 284 299 295 282 271 262 271 271 289 276 287 284 262 254 271 257 278 269 269 283 301 301 302 308 323 308 316 304 302 282 264 280 307 308 311 308 316 300 308 309 321 318 336 336 347 354 367 341 350 365 381 357 383 381 388 374 385 390 390 378 345 318 286 274 267 264 272 301 323 309 286 274 267 244 215 202 195 207 217 231 244 253 280 305 270 236 247 259 242 267 249 251 244 243 238 216 199 204 213 217 209 190 187 182 175 175 170 169 166 171 174 176 179 176 191 190 202 197 224 290 277 262 241 227 226 213 209 209 202 195 191 190 184 192 185 190 191 200 196 185 184 171 155 156 164 167 156 160 158 146 143 137 145 150 140 133 127 129 136 150 148 149 152 148 139 133 126 124 138 140 132 139 141 143 136 128 132 144 143 134 126 119 111 118 120 112 122 135 137 133 141 128 127 121 123 130 135 144 145 136 129 128 128 140 140 146 144 137 140 130 126 131 137 138 142 155 163 159 163 170 168 169 178 181 187 187 181 179 182 171 181 171 161 167 179 173 159 163 176 164 167 170 178 180 174 168 173 184 172 166 165 159 161 152 149 141 142 148 143 134 135 142 132 122 131 143 142 136 133 138 133 127 120 117 116 120 122 127 131 129 122 121 113 113 105 111 103 112 111 123 137 149 160 151 160 121 100 84 75 75 75 75 75 75 75 80 78 75 75 75 75 75 75 75 75 75 75 75 75 76 82 102 167 139 120 126 124 119 129 142 139 149 167 259 136 134 201 214 201 164 170 180 193 258 211 243 332 389 417 283 258 241 246 257 252 249 254 269 287 306 270 318 375 622 -9999 -9999 -9999 -9999 -9999 -9999 -9999 -9999 -9999 -9999 -9999 -9999 -9999 -9999 -9999 -9999 -9999 -9999 -9999 -9999 -9999 -9999 -9999 -9999 -9999 -9999 -9999 -9999 -9999 -9999 -9999 -9999 -9999 -9999 -9999 -9999 -9999 -9999 -9999 -9999 -9999 -9999 -9999 -9999 -9999 -9999 -9999 -9999 -9999 -9999 -9999 -9999 -9999 -9999 -9999 -9999 -9999 -9999 -9999 -9999 -9999 -9999 -9999 -9999 -9999 -9999 -9999
-9999 -9999 -9999 -9999 -9999 -9999 -9999 -9999 -9999 -9999 -9999 -9999 -9999 -9999 -9999 -9999 -9999 -9999 -9999 -9999 -9999 -9999 -9999 -9999 -9999 -9999 -9999 -9999 -9999 -9999 -9999 -9999 -9999 -9999 -9999 -9999 318 320 309 281 300 288 287 294 329 352 323 316 324 310 301 319 319 320 326 319 309 317 325 334 332 333 332 315 308 303 302 302 294 295 291 302 300 307 294 304 299 310 310 319 312 309 290 288 300 292 291 306 310 327 328 312 322 309 311 303 291 294 304 299 313 314 310 298 289 287 300 287 279 265 272 285 279 291 292 288 273 261 272 276 261 283 285 269 288 293 304 309 319 307 300 292 287 291 284 263 280 292 305 305 297 298 295 305 321 328 333 340 357 366 342 352 336 350 361 361 352 371 357 356 353 379 396 386 312 290 299 278 284 277 256 257 270 285 296 296 269 246 230 217 208 194 212 226 216 232 262 297 292 265 237 277 283 275 272 256 267 262 243 224 206 222 245 249 235 219 216 212 197 184 184 184 172 165 162 165 167 177 177 173 190 194 191 190 248 289 275 256 233 214 207 200 200 195 201 201 198 190 199 198 194 209 210 206 188 163 162 176 171 178 168 168 167 155 149 147 141 145 138 133 137 131 134 136 146 155 154 151 138 135 134 137 124 130 142 138 146 145 142 132 130 142 143 139 129 123 119 112 120 123 114 121 124 130 134 145 138 132 128 126 129 135 140 145 135 139 129 130 136 146 144 151 143 135 132 136 135 138 143 146 148 165 170 172 178 176 181 188 177 180 182 181 172 179 172 171 179 165 161 166 180 165 154 168 154 159 169 175 179 166 161 172 175 165 168 176 175 171 162 155 161 155 161 148 140 144 143 138 127 134 151 146 139 142 145 133 122 126 131 126 130 126 135 139 136 128 119 118 114 113 110 106 117 119 121 132 143 157 164 160 147 108 87 76 75 75 75 75 75 75 79 81 75 75 75 75 75 75 75 75 75 75 75 77 82 86 103 166 145 133 123 117 123 131 145 138 134 145 204 134 131 188 193 220 179 169 177 199 315 267 221 297 343 423 286 258 245 241 254 263 262 267 267 277 309 269 281 304 358 -9999 -9999 -9999 -9999 -9999 -9999 -9999 -9999 -9999 -9999 -9999 -9999 -9999 -9999 -9999 -9999 -9999 -9999 -9999 -9999 -9999 -9999 -9999 -9999 -9999 -9999 -9999 -9999 -9999 -9999 -9999 -9999 -9999 -9999 -9999 -9999 -9999 -9999 -9999 -9999 -9999 -9999 -9999 -9999 -9999 -9999 -9999 -9999 -9999 -9999 -9999 -9999 -9999 -9999 -9999 -9999 -9999 -9999 -9999 -9999 -9999 -9999 -9999 -9999 -9999 -9999 -9999
-9999 -9999 -9999 -9999 -9999 -9999 -9999 -9999 -9999 -9999 -9999 -9999 -9999 -9999 -9999 -9999 -9999 -9999 -9999 -9999 -9999 -9999 -9999 -9999 -9999 -9999 -9999 -9999 -9999 -9999 -9999 -9999 -9999 -9999 -9999 -9999 308 326 313 300 304 303 306 300 330 360 353 318 318 323 324 313 313 311 314 311 304 320 329 329 318 330 318 318 318 318 312 313 303 305 297 292 288 302 292 289 305 307 308 318 310 298 298 283 285 286 296 311 319 324 313 307 312 308 297 304 294 289 296 301 308 315 317 305 293 300 295 283 277 265 272 284 304 295 286 278 264 270 281 284 264 277 286 276 281 293 307 304 302 296 304 300 281 276 266 260 277 294 303 292 290 298 305 312 313 327 334 347 355 341 333 346 329 333 352 336 337 335 347 363 378 377 394 364 325 291 272 266 266 271 262 246 248 249 258 270 278 273 257 235 203 214 215 242 230 237 270 289 278 250 241 277 305 298 276 284 283 278 253 219 209 249 277 268 249 250 238 220 204 198 193 182 169 166 163 160 162 170 176 166 180 181 180 187 206 240 274 249 242 232 223 204 194 183 188 192 200 200 208 209 204 207 201 194 181 169 188 189 185 186 169 172 161 160 152 145 140 141 146 139 139 135 141 136 147 157 154 146 140 140 140 126 127 139 140 148 150 143 135 132 140 145 140 132 126 123 117 116 125 124 114 118 124 126 137 146 138 133 138 132 131 140 144 151 142 142 134 135 136 149 147 158 148 141 134 143 142 144 147 156 154 171 183 183 178 182 181 179 179 171 183 173 173 169 172 161 169 172 155 161 171 166 150 160 150 158 175 162 171 175 165 160 172 156 157 175 175 164 173 172 170 169 171 161 150 156 153 140 136 146 148 152 142 148 140 129 126 137 141 135 141 134 139 133 124 118 121 128 119 115 112 113 112 118 119 134 141 150 157 132 143 112 92 76 75 75 75 75 75 75 75 87 75 75 75 75 75 75 75 75 75 75 75 77 93 117 109 170 151 135 119 117 128 138 141 126 124 125 132 126 133 161 173 216 192 171 179 210 346 315 224 259 338 429 307 274 256 249 247 246 259 263 266 273 294 305 294 323 337 -9999 -9999 -9999 -9999 -9999 -9999 -9999 -9999 -9999 -9999 -9999 -9999 -9999 -9999 -9999 -9999 -9999 -9999 -9999 -9999 -9999 -9999 -9999 -9999 -9999 -9999 -9999 -9999 -9999 -9999 -9999 -9999 -9999 -9999 -9999 -9999 -9999 -9999 -9999 -9999 -9999 -9999 -9999 -9999 -9999 -9999 -9999 -9999 -9999 -9999 -9999 -9999 -9999 -9999 -9999 -9999 -9999 -9999 -9999 -9999 -9999 -9999 -9999 -9999 -9999 -9999 -9999
-9999 -9999 -9999 -9999 -9999 -9999 -9999 -9999 -9999 -9999 -9999 -9999 -9999 -9999 -9999 -9999 -9999 -9999 -9999 -9999 -9999 -9999 -9999 -9999 -9999 -9999 -9999 -9999 -9999 -9999 -9999 -9999 -9999 -9999 -9999 -9999 315 327 334 324 315 313 323 310 318 330 331 314 311 316 317 309 309 304 305 309 307 311 314 322 315 314 324 318 310 325 320 311 319 305 312 298 294 285 298 285 298 298 304 316 313 310 294 282 283 295 294 291 301 316 319 300 301 298 292 298 282 288 294 304 314 325 313 303 300 305 300 280 275 277 285 291 299 291 283 270 268 280 286 282 278 276 295 278 293 290 301 302 288 288 301 290 288 267 257 282 288 283 281 281 294 304 318 323 323 332 342 346 340 335 319 337 331 321 338 326 330 355 373 386 397 381 379 351 324 306 301 286 275 259 260 268 249 235 237 239 249 269 227 202 207 244 236 266 232 241 292 306 294 264 256 267 285 301 302 304 294 275 239 213 228 258 286 284 272 251 222 217 223 206 191 178 175 167 163 161 160 158 163 164 167 167 172 185 193 186 225 269 279 265 248 224 201 188 177 184 187 202 215 209 199 193 187 178 174 176 200 199 184 177 176 168 171 160 155 146 151 146 151 143 138 136 148 142 144 154 160 149 148 143 133 130 133 144 146 150 148 144 138 134 144 149 143 132 128 122 115 123 131 120 122 122 134 126 137 143 145 141 146 133 133 134 144 157 148 143 137 144 142 148 156 157 148 140 141 143 150 152 156 156 168 176 187 184 175 174 168 171 176 164 177 166 167 161 168 158 160 174 160 152 161 164 154 146 146 154 163 153 160 169 155 160 168 153 152 164 168 158 169 161 157 160 171 163 159 168 166 149 144 152 157 158 151 151 136 134 129 141 151 143 150 139 129 124 125 131 136 130 132 120 114 114 121 120 124 129 141 152 166 142 118 104 89 77 75 77 77 75 75 75 79 92 75 75 75 75 75 75 75 75 75 75 75 79 82 100 119 170 148 130 119 112 120 123 124 114 116 122 130 124 130 145 221 232 234 179 186 212 318 352 232 282 322 390 306 274 261 256 260 262 256 263 275 281 300 355 308 372 381 562 -9999 -9999 -9999 -9999 -9999 -9999 -9999 -9999 -9999 -9999 -9999 -9999 -9999 -9999 -9999 -9999 -9999 -9999 -9999 -9999 -9999 -9999 -9999 -9999 -9999 -9999 -9999 -9999 -9999 -9999 -9999 -9999 -9999 -9999 -9999 -9999 -9999 -9999 -9999 -9999 -9999 -9999 -9999 -9999 -9999 -9999 -9999 -9999 -9999 -9999 -9999 -9999 -9999 -9999 -9999 -9999 -9999 -9999 -9999 -9999 -9999 -9999 -9999 -9999 -9999 -9999
-9999 -9999 -9999 -9999 -9999 -9999 -9999 -9999 -9999 -9999 -9999 -9999 -9999 -9999 -9999 -9999 -9999 -9999 -9999 -9999 -9999 -9999 -9999 -9999 -9999 -9999 -9999 -9999 -9999 -9999 -9999 -9999 -9999 -9999 -9999 -9999 317 325 319 315 317 323 325 316 302 308 310 315 300 314 304 309 309 298 296 303 292 302 305 314 309 308 316 303 299 314 316 314 324 312 317 310 306 294 282 284 294 292 306 301 299 305 303 293 278 296 285 306 297 311 317 308 296 285 291 290 279 289 291 303 310 317 324 320 311 301 287 280 285 288 304 303 302 287 275 277 277 281 290 293 287 288 293 297 294 287 287 292 279 276 289 279 291 271 261 285 276 270 274 288 301 319 319 332 341 331 338 334 327 330 317 332 328 312 319 317 334 359 367 377 384 384 368 355 338 326 314 295 295 286 286 290 274 262 235 228 239 225 201 204 224 263 251 258 234 255 300 319 296 286 274 286 296 312 290 278 252 224 213 242 256 255 285 299 285 262 226 240 238 224 210 198 190 172 167 166 161 159 156 156 157 161 164 171 173 184 196 282 296 291 260 229 225 207 179 173 181 199 210 205 207 197 189 186 179 194 202 192 192 184 174 177 169 164 149 157 153 149 146 148 138 137 148 147 148 159 162 153 151 144 133 133 136 141 149 149 145 143 136 143 144 151 142 135 130 124 119 124 133 125 122 125 135 136 132 145 151 151 144 136 145 138 140 153 155 145 140 150 148 152 157 161 157 149 149 145 154 156 164 165 175 181 173 171 170 162 162 162 161 162 164 168 157 159 155 157 158 165 163 147 153 158 147 140 142 155 166 156 151 160 145 156 168 163 148 155 151 150 162 159 146 156 156 155 147 158 155 164 163 163 162 166 166 150 145 137 138 144 149 142 135 129 132 134 135 138 146 139 132 122 120 119 121 122 136 130 141 154 161 168 135 117 94 86 86 93 83 78 75 75 84 95 76 75 75 75 75 75 75 75 75 75 75 77 76 88 127 167 142 130 116 111 118 111 111 114 131 132 136 136 137 144 272 252 264 185 194 226 382 389 243 318 465 452 326 287 270 270 262 271 260 268 265 277 298 382 341 407 393 527 -9999 -9999 -9999 -9999 -9999 -9999 -9999 -9999 -9999 -9999 -9999 -9999 -9999 -9999 -9999 -9999 -9999 -9999 -9999 -9999 -9999 -9999 -9999 -9999 -9999 -9999 -9999 -9999 -9999 -9999 -9999 -9999 -9999 -9999 -9999 -9999 -9999 -9999 -9999 -9999 -9999 -9999 -9999 -9999 -9999 -9999 -9999 -9999 -9999 -9999 -9999 -9999 -9999 -9999 -9999 -9999 -9999 -9999 -9999 -9999 -9999 -9999 -9999 -9999 -9999 -9999
-9999 -9999 -9999 -9999 -9999 -9999 -9999 -9999 -9999 -9999 -9999 -9999 -9999 -9999 -9999 -9999 -9999 -9999 -9999 -9999 -9999 -9999 -9999 -9999 -9999 -9999 -9999 -9999 -9999 -9999 -9999 -9999 -9999 -9999 -9999 317 327 326 308 307 310 311 313 311 296 302 301 313 297 307 297 303 303 286 292 294 303 308 316 316 297 310 305 311 292 307 306 307 324 319 318 308 300 289 288 275 282 296 311 292 286 292 302 286 274 278 281 293 290 310 300 300 298 288 279 282 272 284 297 300 308 320 329 319 318 306 285 296 292 304 298 325 302 287 290 285 287 293 300 301 300 298 294 281 282 285 275 280 277 271 284 289 269 255 257 261 271 281 292 307 311 323 339 333 332 334 329 323 321 319 309 318 318 310 318 329 341 347 357 356 364 361 352 332 311 294 311 285 279 281 267 279 281 266 235 221 232 221 205 215 240 285 276 252 240 252 283 316 321 302 302 310 321 283 235 238 223 216 239 262 290 279 292 310 300 275 235 248 254 245 232 219 203 181 173 166 163 161 156 152 152 152 156 160 161 182 191 290 302 299 274 259 229 217 182 169 188 204 212 200 202 196 199 191 188 201 208 203 194 185 181 176 178 158 157 163 153 151 151 149 142 139 154 155 148 160 163 154 147 137 136 133 140 144 154 149 149 138 150 146 153 154 144 137 129 119 124 129 135 132 122 130 134 140 135 141 152 155 139 141 152 140 145 157 159 151 144 154 160 162 162 168 164 158 158 151 162 163 180 184 189 183 179 178 173 176 172 157 155 154 153 152 148 156 149 154 149 153 156 152 141 153 161 145 136 149 153 144 140 155 141 149 158 163 143 147 143 147 155 146 146 153 144 150 141 141 145 151 164 159 150 156 168 164 154 149 149 143 136 135 142 146 143 133 144 145 139 129 145 141 123 123 128 129 130 134 147 154 159 172 158 116 123 101 107 102 86 87 76 75 93 102 79 75 75 75 75 75 75 75 75 75 75 75 77 100 149 159 130 128 115 110 114 106 107 118 141 154 145 147 152 150 256 357 318 191 194 235 446 468 257 285 474 501 328 305 278 270 266 269 265 277 280 279 317 390 365 419 421 527 -9999 -9999 -9999 -9999 -9999 -9999 -9999 -9999 -9999 -9999 -9999 -9999 -9999 -9999 -9999 -9999 -9999 -9999 -9999 -9999 -9999 -9999 -9999 -9999 -9999 -9999 -9999 -9999 -9999 -9999 -9999 -9999 -9999 -9999 -9999 -9999 -9999 -9999 -9999 -9999 -9999 -9999 -9999 -9999 -9999 -9999 -9999 -9999 -9999 -9999 -9999 -9999 -9999 -9999 -9999 -9999 -9999 -9999 -9999 -9999 -9999 -9999 -9999 -9999 -9999 -9999
-9999 -9999 -9999 -9999 -9999 -9999 -9999 -9999 -9999 -9999 -9999 -9999 -9999 -9999 -9999 -9999 -9999 -9999 -9999 -9999 -9999 -9999 -9999 -9999 -9999 -9999 -9999 -9999 -9999 -9999 -9999 -9999 -9999 -9999 -9999 322 327 336 313 303 301 302 313 307 305 291 291 298 294 297 291 299 299 285 295 306 308 314 318 317 301 299 305 295 288 301 294 307 317 322 312 314 304 299 292 290 280 280 295 287 282 299 303 295 285 268 284 283 285 299 293 302 288 289 279 271 277 284 292 302 313 317 323 320 315 300 294 304 302 315 303 287 295 291 289 296 286 289 292 289 291 290 293 275 276 271 263 272 274 265 275 279 263 251 261 279 287 298 299 302 308 310 326 326 327 332 319 311 324 308 306 314 307 308 311 329 334 341 345 338 349 351 346 334 312 294 276 277 260 259 249 247 267 268 257 243 222 210 215 230 242 289 316 289 281 280 289 328 340 312 332 329 297 241 229 218 216 236 263 291 310 303 318 326 307 267 253 272 269 257 237 212 205 187 178 174 171 164 160 155 155 155 149 150 156 167 180 275 320 306 298 254 189 190 172 163 185 190 193 174 193 203 201 204 198 212 209 200 196 195 186 178 162 164 166 163 155 157 152 143 147 140 153 162 151 161 156 147 140 140 144 134 145 153 158 152 149 143 151 153 155 148 136 132 127 122 129 125 137 131 124 129 140 146 144 143 154 157 143 147 156 144 146 156 160 156 152 160 164 165 176 174 178 172 162 161 164 182 189 197 186 179 190 188 185 173 165 168 164 163 159 154 154 145 143 144 141 146 148 154 140 148 156 148 134 139 156 150 131 143 134 137 146 158 138 136 135 135 149 140 140 148 133 142 135 135 145 150 157 151 141 147 153 166 165 156 149 146 144 147 154 154 141 141 153 144 140 137 145 141 129 130 139 140 134 136 146 154 165 173 182 154 124 108 127 116 97 83 76 75 94 103 79 75 75 75 75 75 75 75 75 75 75 75 80 118 144 145 124 131 121 107 107 106 113 117 122 148 152 157 163 167 240 451 332 208 194 248 484 520 282 279 348 422 331 311 281 276 277 273 275 284 294 290 334 383 428 396 437 490 -9999 -9999 -9999 -9999 -9999 -9999 -9999 -9999 -9999 -9999 -9999 -9999 -9999 -9999 -9999 -9999 -9999 -9999 -9999 -9999 -9999 -9999 -9999 -9999 -9999 -9999 -9999 -9999 -9999 -9999 -9999 -9999 -9999 -9999 -9999 -9999 -9999 -9999 -9999 -9999 -9999 -9999 -9999 -9999 -9999 -9999 -9999 -9999 -9999 -9999 -9999 -9999 -9999 -9999 -9999 -9999 -9999 -9999 -9999 -9999 -9999 -9999 -9999 -9999 -9999 -9999
-9999 -9999 -9999 -9999 -9999 -9999 -9999 -9999 -9999 -9999 -9999 -9999 -9999 -9999 -9999 -9999 -9999 -9999 -9999 -9999 -9999 -9999 -9999 -9999 -9999 -9999 -9999 -9999 -9999 -9999 -9999 -9999 -9999 -9999 -9999 304 317 322 308 298 292 296 308 300 293 298 280 294 289 286 284 292 292 284 289 296 307 314 305 322 304 287 294 299 282 301 289 302 306 310 304 301 306 306 306 300 298 278 273 272 273 282 285 285 286 276 267 272 282 283 290 290 288 290 276 273 284 288 295 307 311 307 319 310 317 303 301 309 297 308 294 275 289 296 283 282 286 284 280 286 277 285 287 272 264 262 260 270 261 256 267 254 245 247 258 270 289 285 288 296 308 296 312 309 321 320 304 314 313 299 297 312 301 311 310 321 326 336 341 334 343 345 338 323 305 281 269 283 290 280 269 250 237 237 237 251 248 211 224 246 247 303 343 330 314 305 300 332 347 319 339 323 275 240 225 235 233 234 255 304 324 332 346 317 292 277 294 282 264 240 221 224 227 208 196 189 185 183 175 169 173 166 159 151 146 150 167 196 308 322 315 236 181 172 165 156 169 175 173 171 200 210 202 203 201 205 206 206 203 197 180 169 173 178 174 162 168 160 150 150 149 141 152 163 156 164 157 147 145 148 143 135 150 157 160 156 150 147 154 161 153 142 135 130 127 124 134 127 135 133 127 129 134 141 149 145 154 165 151 147 155 149 155 159 162 161 162 158 153 167 171 169 169 176 171 175 174 192 200 190 188 183 197 191 174 178 181 169 176 172 160 166 155 155 151 145 144 141 137 136 133 139 143 142 138 131 145 142 128 131 131 128 143 149 142 126 131 130 140 135 134 144 132 134 129 135 145 138 139 143 134 139 150 162 157 166 164 156 155 162 153 142 140 147 147 147 152 147 140 141 137 138 135 135 128 128 136 148 157 173 177 165 140 121 137 119 104 89 80 79 90 103 81 75 75 75 75 75 75 75 75 75 75 79 94 159 146 137 116 131 116 102 104 103 117 125 133 143 169 194 227 207 252 541 392 227 205 242 449 568 321 273 325 420 343 305 289 285 290 280 273 293 302 304 341 381 452 419 457 486 615 -9999 -9999 -9999 -9999 -9999 -9999 -9999 -9999 -9999 -9999 -9999 -9999 -9999 -9999 -9999 -9999 -9999 -9999 -9999 -9999 -9999 -9999 -9999 -9999 -9999 -9999 -9999 -9999 -9999 -9999 -9999 -9999 -9999 -9999 -9999 -9999 -9999 -9999 -9999 -9999 -9999 -9999 -9999 -9999 -9999 -9999 -9999 -9999 -9999 -9999 -9999 -9999 -9999 -9999 -9999 -9999 -9999 -9999 -9999 -9999 -9999 -9999 -9999 -9999 -9999
-9999 -9999 -9999 -9999 -9999 -9999 -9999 -9999 -9999 -9999 -9999 -9999 -9999 -9999 -9999 -9999 -9999 -9999 -9999 -9999 -9999 -9999 -9999 -9999 -9999 -9999 -9999 -9999 -9999 -9999 -9999 -9999 -9999 -9999 -9999 307 302 322 317 300 291 288 304 296 282 294 278 284 282 281 285 280 280 294 296 306 307 298 308 311 309 293 283 290 282 291 286 296 297 303 299 290 294 310 306 293 286 278 290 283 279 267 269 279 276 278 278 261 274 284 287 279 284 283 269 275 277 291 300 296 301 292 304 300 302 310 304 294 297 283 285 275 278 279 293 288 273 274 275 285 266 278 276 278 268 249 248 248 244 244 243 245 257 274 271 259 274 274 290 286 293 288 294 297 304 306 296 307 306 294 292 294 296 299 312 324 329 339 326 330 331 332 316 327 298 286 279 305 300 299 268 256 253 257 243 219 212 214 251 260 268 312 315 328 343 332 319 322 346 337 323 277 253 238 230 229 244 244 301 315 330 354 346 319 294 311 305 274 246 247 252 247 240 222 202 180 176 178 181 178 172 167 160 155 146 143 148 174 236 329 329 254 186 183 172 159 156 166 158 172 191 180 170 172 188 179 184 198 200 183 173 183 187 181 169 174 170 166 154 161 152 146 151 166 161 167 152 149 155 152 142 137 146 161 162 158 148 153 161 159 152 142 135 134 126 132 139 132 143 135 134 134 136 143 148 150 152 164 160 150 160 158 158 160 151 155 152 148 158 166 159 162 162 162 160 173 180 202 197 197 192 190 196 181 179 189 180 178 181 174 176 164 159 168 155 157 158 153 149 144 133 130 128 130 134 126 132 125 126 122 124 128 139 142 133 125 124 122 128 122 130 139 133 122 128 145 152 138 129 131 130 136 145 156 152 161 170 168 165 163 153 142 131 133 135 133 130 142 150 148 132 134 130 128 128 124 133 146 161 164 169 183 175 149 142 128 106 95 86 91 91 111 86 75 75 75 75 75 75 75 75 75 75 82 95 189 150 127 105 121 118 101 102 107 114 125 141 160 274 364 270 291 245 561 457 247 204 236 419 636 420 284 359 441 340 312 303 290 307 287 282 294 320 324 334 360 449 449 463 479 609 -9999 -9999 -9999 -9999 -9999 -9999 -9999 -9999 -9999 -9999 -9999 -9999 -9999 -9999 -9999 -9999 -9999 -9999 -9999 -9999 -9999 -9999 -9999 -9999 -9999 -9999 -9999 -9999 -9999 -9999 -9999 -9999 -9999 -9999 -9999 -9999 -9999 -9999 -9999 -9999 -9999 -9999 -9999 -9999 -9999 -9999 -9999 -9999 -9999 -9999 -9999 -9999 -9999 -9999 -9999 -9999 -9999 -9999 -9999 -9999 -9999 -9999 -9999 -9999 -9999
-9999 -9999 -9999 -9999 -9999 -9999 -9999 -9999 -9999 -9999 -9999 -9999 -9999 -9999 -9999 -9999 -9999 -9999 -9999 -9999 -9999 -9999 -9999 -9999 -9999 -9999 -9999 -9999 -9999 -9999 -9999 -9999 -9999 -9999 -9999 317 296 315 305 299 284 282 295 287 282 287 281 271 270 271 275 284 284 295 303 314 301 295 301 301 301 293 281 291 276 293 278 287 284 291 281 283 293 311 318 298 291 291 295 287 280 277 269 267 261 261 269 262 277 285 279 280 287 274 266 282 292 292 295 293 300 292 300 289 297 308 309 301 304 311 305 284 263 282 294 292 284 278 260 279 268 270 267 257 262 244 240 241 251 255 263 266 273 274 286 272 272 265 269 269 271 275 281 287 288 286 295 295 286 287 297 305 307 318 319 329 330 327 319 329 344 347 319 308 306 284 290 288 302 285 281 298 292 279 251 216 226 219 245 246 256 274 282 345 362 359 349 356 359 349 322 289 267 254 248 235 273 287 315 293 310 342 326 304 305 317 299 272 259 280 267 249 233 211 189 197 181 171 169 170 171 167 160 152 152 148 142 157 172 247 262 212 186 186 173 158 149 151 158 174 173 159 161 162 169 172 191 194 184 188 182 191 191 175 182 185 173 173 158 164 159 156 149 163 168 165 154 161 155 146 140 139 148 161 164 162 153 153 161 149 144 139 143 133 129 142 136 136 146 138 142 137 142 138 145 152 153 161 158 158 156 149 150 153 151 144 143 151 157 159 154 156 152 154 165 174 192 205 198 201 198 195 193 193 188 195 181 190 183 184 171 168 177 169 162 165 153 163 160 155 143 144 130 126 125 123 120 118 115 116 118 123 135 128 125 127 117 116 122 119 132 132 126 119 133 136 142 134 123 124 133 137 142 145 150 162 164 165 153 156 145 147 139 136 119 121 139 142 137 136 134 126 124 121 123 120 127 142 152 157 171 181 188 184 150 139 119 105 97 94 95 105 92 77 75 75 75 75 75 75 75 75 76 75 80 130 154 122 100 114 109 100 100 110 118 127 146 238 371 504 262 394 274 559 456 259 210 230 368 605 448 299 320 414 325 304 312 307 306 297 285 310 310 309 339 361 419 459 467 495 657 -9999 -9999 -9999 -9999 -9999 -9999 -9999 -9999 -9999 -9999 -9999 -9999 -9999 -9999 -9999 -9999 -9999 -9999 -9999 -9999 -9999 -9999 -9999 -9999 -9999 -9999 -9999 -9999 -9999 -9999 -9999 -9999 -9999 -9999 -9999 -9999 -9999 -9999 -9999 -9999 -9999 -9999 -9999 -9999 -9999 -9999 -9999 -9999 -9999 -9999 -9999 -9999 -9999 -9999 -9999 -9999 -9999 -9999 -9999 -9999 -9999 -9999 -9999 -9999 -9999
-9999 -9999 -9999 -9999 -9999 -9999 -9999 -9999 -9999 -9999 -9999 -9999 -9999 -9999 -9999 -9999 -9999 -9999 -9999 -9999 -9999 -9999 -9999 -9999 -9999 -9999 -9999 -9999 -9999 -9999 -9999 -9999 -9999 -9999 -9999 323 287 299 294 295 275 278 289 285 280 287 272 266 280 282 282 291 291 299 300 311 305 286 289 295 298 283 275 285 270 289 276 275 275 277 276 285 290 298 303 295 305 309 290 294 293 288 288 283 273 268 259 258 262 273 273 268 282 271 262 279 282 289 287 289 287 283 294 288 302 309 335 331 325 294 284 285 267 272 283 284 290 277 260 257 272 258 265 248 251 238 253 261 260 273 281 278 278 284 291 288 280 279 269 266 276 273 268 271 272 282 280 282 291 305 307 310 311 312 318 323 310 321 326 333 336 325 323 308 289 297 303 293 279 275 292 310 289 234 228 211 227 242 226 247 267 264 270 307 324 371 357 350 337 335 311 284 284 276 274 244 276 274 286 286 309 340 321 308 333 326 283 274 282 278 254 222 201 204 218 217 198 180 166 163 162 165 162 152 163 151 143 144 149 159 168 169 185 181 170 162 158 149 145 155 161 149 152 163 154 165 177 179 172 192 195 198 185 183 190 182 180 167 170 172 168 165 150 158 172 162 164 167 157 144 147 143 153 162 169 166 155 157 161 149 145 148 142 131 136 143 137 143 148 141 144 142 143 150 142 144 150 155 151 158 158 151 143 149 143 141 144 151 151 154 150 146 149 156 161 176 184 205 202 205 200 201 196 200 195 196 186 196 188 179 185 176 185 171 177 168 160 172 165 147 159 146 142 133 134 127 122 122 120 115 115 118 120 121 119 122 112 112 120 118 124 130 118 120 125 136 139 131 125 122 127 127 134 145 149 154 154 154 144 150 146 140 140 133 130 117 128 125 126 136 134 127 120 116 120 119 130 138 145 160 165 177 186 183 160 142 124 122 106 103 102 117 106 82 75 75 75 75 75 75 75 75 75 75 75 87 102 109 94 108 95 95 106 122 137 173 295 362 469 555 350 476 327 503 419 254 222 228 299 533 535 354 307 349 307 295 295 297 316 310 306 312 296 306 324 368 384 391 426 498 -9999 -9999 -9999 -9999 -9999 -9999 -9999 -9999 -9999 -9999 -9999 -9999 -9999 -9999 -9999 -9999 -9999 -9999 -9999 -9999 -9999 -9999 -9999 -9999 -9999 -9999 -9999 -9999 -9999 -9999 -9999 -9999 -9999 -9999 -9999 -9999 -9999 -9999 -9999 -9999 -9999 -9999 -9999 -9999 -9999 -9999 -9999 -9999 -9999 -9999 -9999 -9999 -9999 -9999 -9999 -9999 -9999 -9999 -9999 -9999 -9999 -9999 -9999 -9999 -9999 -9999
-9999 -9999 -9999 -9999 -9999 -9999 -9999 -9999 -9999 -9999 -9999 -9999 -9999 -9999 -9999 -9999 -9999 -9999 -9999 -9999 -9999 -9999 -9999 -9999 -9999 -9999 -9999 -9999 -9999 -9999 -9999 -9999 -9999 -9999 314 301 282 288 288 293 280 276 278 283 278 274 266 273 285 293 295 298 298 302 295 303 301 288 284 288 296 291 276 273 269 282 278 266 264 271 283 296 301 311 309 310 306 309 304 305 311 294 301 296 278 282 273 258 253 255 257 264 280 268 264 284 275 285 286 291 279 280 283 295 300 323 337 318 298 282 279 270 269 267 272 276 291 286 274 259 256 249 245 234 238 248 258 273 275 268 283 290 284 283 295 291 288 274 276 281 277 293 279 287 292 294 296 288 288 290 290 295 295 304 305 303 313 329 333 347 341 321 308 310 309 306 301 277 272 257 268 261 253 242 242 213 225 266 248 236 251 243 260 265 280 300 330 323 307 298 293 287 276 298 289 243 270 282 277 287 316 332 317 332 328 311 295 285 251 234 215 214 234 240 240 228 210 184 167 167 163 161 170 162 173 165 158 144 139 143 150 155 178 176 166 162 161 161 151 142 144 142 155 154 150 168 164 156 170 195 203 192 195 191 191 188 179 169 183 182 174 164 154 166 171 164 168 162 154 146 148 149 155 166 173 164 153 162 161 155 154 145 134 133 140 150 141 149 155 145 148 152 146 150 155 152 154 151 143 153 154 151 141 144 139 138 150 145 145 149 143 145 153 159 165 168 182 196 207 209 207 207 201 199 199 198 196 196 191 192 191 190 188 186 181 179 174 176 161 160 153 148 152 141 141 136 136 132 117 112 113 113 113 118 112 116 107 108 118 113 115 126 115 117 125 139 142 138 127 120 120 132 133 143 135 150 149 141 143 141 144 132 141 123 135 114 117 119 130 129 124 118 113 112 112 117 127 142 157 154 174 175 187 186 179 166 143 138 115 106 106 116 102 83 77 75 75 75 75 75 75 75 75 75 77 141 110 83 88 89 91 100 113 137 171 272 528 512 583 567 468 527 405 466 516 290 222 225 262 405 524 361 383 342 305 299 278 280 310 300 291 291 285 293 323 362 356 355 385 490 -9999 -9999 -9999 -9999 -9999 -9999 -9999 -9999 -9999 -9999 -9999 -9999 -9999 -9999 -9999 -9999 -9999 -9999 -9999 -9999 -9999 -9999 -9999 -9999 -9999 -9999 -9999 -9999 -9999 -9999 -9999 -9999 -9999 -9999 -9999 -9999 -9999 -9999 -9999 -9999 -9999 -9999 -9999 -9999 -9999 -9999 -9999 -9999 -9999 -9999 -9999 -9999 -9999 -9999 -9999 -9999 -9999 -9999 -9999 -9999 -9999 -9999 -9999 -9999 -9999 -9999
-9999 -9999 -9999 -9999 -9999 -9999 -9999 -9999 -9999 -9999 -9999 -9999 -9999 -9999 -9999 -9999 -9999 -9999 -9999 -9999 -9999 -9999 -9999 -9999 -9999 -9999 -9999 -9999 -9999 -9999 -9999 -9999 -9999 -9999 293 289 276 290 280 286 280 283 265 282 275 261 264 279 290 284 289 294 294 298 285 289 289 277 281 283 291 295 287 262 264 270 271 260 275 278 290 308 316 319 322 310 324 313 324 307 319 303 314 296 292 286 273 273 264 259 258 256 275 270 260 269 274 281 288 278 271 277 287 292 295 312 303 294 287 287 280 274 267 257 261 278 280 280 265 266 244 243 236 241 255 253 258 274 283 292 288 295 294 290 310 291 283 282 281 288 278 286 298 302 318 314 316 306 299 299 291 301 312 321 327 321 315 318 339 337 331 309 308 296 308 291 290 275 251 253 251 257 252 234 228 221 219 263 274 256 238 248 266 271 290 319 346 324 314 305 288 278 278 275 260 239 294 314 294 306 345 337 328 357 324 271 267 245 221 222 237 254 264 248 240 224 193 172 187 179 180 182 175 178 164 152 148 145 144 137 141 147 169 160 154 158 157 162 161 153 142 138 144 144 155 145 147 164 185 208 203 202 200 198 194 190 174 178 189 187 176 168 161 163 173 174 172 163 152 150 151 159 162 168 169 158 159 168 163 158 147 140 136 136 147 150 143 147 157 146 152 158 153 149 156 147 143 144 139 148 148 146 147 137 135 139 145 140 141 137 144 151 158 161 169 174 176 190 204 204 201 200 198 197 188 193 188 176 177 178 178 177 173 175 178 177 171 176 165 165 160 159 160 155 145 147 145 127 124 123 115 112 111 114 107 112 110 106 112 105 112 111 110 121 134 131 141 143 142 128 116 124 133 127 138 148 144 133 130 134 134 125 140 119 108 108 116 121 128 127 121 114 109 108 110 112 121 141 142 155 155 172 171 167 183 171 149 140 111 102 95 112 99 82 75 75 75 75 75 75 75 75 75 75 83 162 188 103 86 93 101 106 124 144 196 372 543 630 636 586 549 439 522 471 487 339 221 221 241 299 484 407 345 319 307 302 271 272 304 286 280 273 278 298 322 354 333 342 362 -9999 -9999 -9999 -9999 -9999 -9999 -9999 -9999 -9999 -9999 -9999 -9999 -9999 -9999 -9999 -9999 -9999 -9999 -9999 -9999 -9999 -9999 -9999 -9999 -9999 -9999 -9999 -9999 -9999 -9999 -9999 -9999 -9999 -9999 -9999 -9999 -9999 -9999 -9999 -9999 -9999 -9999 -9999 -9999 -9999 -9999 -9999 -9999 -9999 -9999 -9999 -9999 -9999 -9999 -9999 -9999 -9999 -9999 -9999 -9999 -9999 -9999 -9999 -9999 -9999 -9999 -9999
-9999 -9999 -9999 -9999 -9999 -9999 -9999 -9999 -9999 -9999 -9999 -9999 -9999 -9999 -9999 -9999 -9999 -9999 -9999 -9999 -9999 -9999 -9999 -9999 -9999 -9999 -9999 -9999 -9999 -9999 -9999 -9999 -9999 -9999 289 283 273 288 273 281 274 284 272 274 271 259 273 283 285 276 289 284 284 294 279 289 292 273 268 275 274 281 281 273 257 262 263 262 276 286 294 308 307 326 305 313 315 312 312 311 310 315 303 298 288 283 280 278 269 269 264 252 264 274 258 261 278 273 280 280 275 295 287 308 338 290 289 295 293 290 292 290 281 260 258 266 277 276 262 241 234 232 239 248 253 267 261 262 264 288 294 297 311 299 300 301 294 283 287 285 296 283 300 312 316 325 323 318 301 303 308 300 309 315 326 338 335 339 350 335 306 308 292 288 290 282 267 249 241 240 238 253 248 250 233 222 213 229 238 249 271 272 275 289 311 340 363 356 342 327 303 286 278 274 251 243 315 324 319 371 368 371 371 374 334 251 240 223 253 263 286 291 277 247 216 199 179 195 208 205 195 183 178 164 162 165 152 145 149 140 134 140 152 148 147 162 150 157 162 158 151 137 134 146 148 140 153 163 176 193 195 204 208 204 197 184 183 190 197 188 179 178 173 172 175 182 168 161 158 156 151 166 174 175 165 165 166 168 161 150 146 143 143 141 149 148 146 154 158 148 157 160 156 156 154 145 136 139 136 145 141 140 145 134 137 135 145 135 137 142 142 147 153 159 162 169 168 176 186 202 191 192 185 187 177 183 173 177 159 163 165 155 156 155 165 170 156 166 162 154 155 160 151 149 153 149 143 136 136 131 124 122 115 111 113 106 108 104 104 103 113 105 112 122 122 128 137 142 144 131 114 122 119 132 139 140 139 138 122 122 126 122 128 118 117 107 115 122 135 128 121 117 110 103 105 113 121 130 138 144 149 155 153 168 183 166 140 131 109 92 86 103 118 94 75 75 75 75 75 75 75 75 75 75 89 167 230 136 102 95 108 114 126 148 228 390 522 679 658 659 657 436 552 473 419 280 218 211 223 247 367 358 311 310 284 284 262 271 299 273 267 281 285 287 296 324 318 332 353 -9999 -9999 -9999 -9999 -9999 -9999 -9999 -9999 -9999 -9999 -9999 -9999 -9999 -9999 -9999 -9999 -9999 -9999 -9999 -9999 -9999 -9999 -9999 -9999 -9999 -9999 -9999 -9999 -9999 -9999 -9999 -9999 -9999 -9999 -9999 -9999 -9999 -9999 -9999 -9999 -9999 -9999 -9999 -9999 -9999 -9999 -9999 -9999 -9999 -9999 -9999 -9999 -9999 -9999 -9999 -9999 -9999 -9999 -9999 -9999 -9999 -9999 -9999 -9999 -9999 -9999 -9999
-9999 -9999 -9999 -9999 -9999 -9999 -9999 -9999 -9999 -9999 -9999 -9999 -9999 -9999 -9999 -9999 -9999 -9999 -9999 -9999 -9999 -9999 -9999 -9999 -9999 -9999 -9999 -9999 -9999 -9999 -9999 -9999 -9999 -9999 -9999 278 268 282 268 273 271 273 278 262 258 263 274 281 269 278 289 281 281 278 278 287 296 284 276 262 273 266 274 267 265 253 255 265 270 280 293 297 295 307 298 322 305 303 312 300 299 296 304 292 292 289 284 283 276 274 277 259 251 267 265 257 266 272 285 281 271 283 290 307 319 292 281 290 297 293 288 280 282 263 247 259 268 270 250 247 233 253 260 263 261 258 276 281 285 278 280 313 364 306 332 340 317 300 290 295 305 297 285 299 310 332 336 332 316 319 305 296 306 321 316 333 324 338 337 308 290 298 287 279 272 268 257 253 258 253 239 236 239 230 219 217 220 227 243 268 281 283 277 312 337 356 377 352 356 328 312 311 298 282 261 255 312 342 380 404 378 356 341 305 270 247 231 238 274 271 293 274 267 237 202 193 208 219 225 218 204 197 177 168 180 164 155 149 146 143 138 134 137 136 147 151 144 158 160 159 153 146 133 135 137 141 155 159 161 166 171 184 190 200 197 188 192 193 195 184 182 185 182 173 177 186 178 168 162 160 158 165 183 176 167 170 169 157 151 156 155 146 148 150 155 151 148 151 159 152 162 156 147 146 147 147 136 133 139 146 145 137 141 132 131 137 138 132 136 144 151 153 151 154 157 158 160 166 176 192 195 183 176 172 168 172 164 174 157 153 156 150 149 146 158 160 147 153 149 151 149 150 148 137 138 142 132 137 133 131 128 130 128 126 124 119 113 107 104 100 104 101 109 113 121 132 130 132 135 131 110 119 116 130 131 138 139 129 127 118 110 109 117 116 111 105 116 120 125 124 113 111 100 102 107 109 121 129 124 130 135 141 158 174 179 147 128 124 104 87 76 88 117 93 75 75 75 75 75 75 75 75 75 76 94 160 241 165 115 100 105 113 129 153 218 394 523 700 678 737 693 475 555 487 468 287 218 209 216 236 351 387 298 311 280 268 252 271 280 254 257 278 296 292 302 316 323 335 358 -9999 -9999 -9999 -9999 -9999 -9999 -9999 -9999 -9999 -9999 -9999 -9999 -9999 -9999 -9999 -9999 -9999 -9999 -9999 -9999 -9999 -9999 -9999 -9999 -9999 -9999 -9999 -9999 -9999 -9999 -9999 -9999 -9999 -9999 -9999 -9999 -9999 -9999 -9999 -9999 -9999 -9999 -9999 -9999 -9999 -9999 -9999 -9999 -9999 -9999 -9999 -9999 -9999 -9999 -9999 -9999 -9999 -9999 -9999 -9999 -9999 -9999 -9999 -9999 -9999 -9999 -9999
-9999 -9999 -9999 -9999 -9999 -9999 -9999 -9999 -9999 -9999 -9999 -9999 -9999 -9999 -9999 -9999 -9999 -9999 -9999 -9999 -9999 -9999 -9999 -9999 -9999 -9999 -9999 -9999 -9999 -9999 -9999 -9999 -9999 -9999 -9999 -9999 265 271 263 267 264 271 276 266 257 264 273 268 270 272 276 275 275 270 280 284 291 284 280 271 259 260 275 262 268 249 251 257 266 272 287 284 288 286 304 309 305 293 309 295 285 295 298 293 302 293 296 294 288 287 276 266 252 252 265 252 274 278 283 272 267 287 312 287 281 281 279 287 289 287 279 273 274 278 259 244 259 268 259 240 235 254 257 253 269 271 263 273 290 295 305 302 330 311 327 326 317 298 288 297 309 298 294 293 315 326 324 323 326 326 320 311 302 309 323 322 326 341 328 297 282 277 286 270 260 258 263 267 269 249 247 231 234 223 225 226 224 233 243 277 312 288 283 302 322 360 372 341 353 326 332 319 294 275 261 265 283 331 384 377 341 316 296 274 256 243 245 255 247 225 243 228 221 204 212 229 239 242 237 225 212 189 174 180 177 177 181 168 155 144 144 138 133 133 138 142 139 145 157 155 151 150 142 130 127 147 145 142 152 152 155 161 169 193 202 189 173 174 172 172 181 188 185 176 184 192 181 178 171 162 164 169 181 173 176 177 168 158 166 159 150 154 154 153 158 154 154 158 161 160 160 148 141 136 144 146 136 130 139 140 140 139 139 135 127 136 129 137 143 145 148 141 147 148 156 166 169 174 182 188 183 180 176 172 164 162 155 163 156 146 148 144 138 147 153 148 144 146 140 149 138 139 151 142 131 139 132 127 126 135 120 119 119 116 122 117 122 118 113 110 100 104 110 112 119 129 125 119 130 118 108 116 120 133 127 125 134 123 126 118 114 102 110 116 106 105 110 116 120 121 114 109 102 98 99 110 112 114 130 147 151 154 164 172 178 150 130 110 97 86 75 84 91 76 75 75 75 75 75 75 75 75 75 75 89 127 170 146 130 111 122 121 131 156 193 317 491 671 636 703 647 480 554 462 453 279 216 203 211 236 342 391 288 304 272 255 243 267 262 248 260 292 310 318 325 345 349 368 446 -9999 -9999 -9999 -9999 -9999 -9999 -9999 -9999 -9999 -9999 -9999 -9999 -9999 -9999 -9999 -9999 -9999 -9999 -9999 -9999 -9999 -9999 -9999 -9999 -9999 -9999 -9999 -9999 -9999 -9999 -9999 -9999 -9999 -9999 -9999 -9999 -9999 -9999 -9999 -9999 -9999 -9999 -9999 -9999 -9999 -9999 -9999 -9999 -9999 -9999 -9999 -9999 -9999 -9999 -9999 -9999 -9999 -9999 -9999 -9999 -9999 -9999 -9999 -9999 -9999 -9999 -9999
-9999 -9999 -9999 -9999 -9999 -9999 -9999 -9999 -9999 -9999 -9999 -9999 -9999 -9999 -9999 -9999 -9999 -9999 -9999 -9999 -9999 -9999 -9999 -9999 -9999 -9999 -9999 -9999 -9999 -9999 -9999 -9999 -9999 -9999 -9999 -9999 262 262 261 264 252 265 261 260 256 255 260 260 267 263 267 269 269 275 285 292 294 281 269 271 258 257 265 272 257 248 246 266 277 280 277 275 283 296 302 305 297 307 287 281 284 303 303 300 305 300 310 297 288 279 276 264 258 246 255 253 265 281 275 264 278 297 288 277 274 269 279 275 285 280 283 280 264 272 267 248 251 257 244 232 244 241 241 242 257 268 274 297 285 301 313 304 298 291 301 323 314 306 298 314 303 299 302 298 304 331 313 325 311 310 304 316 310 317 323 318 335 329 317 297 292 274 267 269 274 285 276 275 255 246 241 243 227 231 228 239 229 230 252 301 337 299 316 346 351 380 375 343 339 338 319 300 287 270 300 282 285 334 356 372 347 329 313 293 271 255 269 235 219 214 207 203 206 207 239 260 263 254 227 209 194 184 193 196 181 178 166 154 148 147 146 138 137 132 131 132 135 141 148 151 147 145 144 139 130 125 131 145 136 141 145 136 159 167 161 156 162 171 177 177 172 173 177 179 193 191 190 178 183 170 172 185 185 180 188 182 167 168 165 154 157 161 152 158 162 159 159 162 152 156 145 148 143 133 134 139 140 130 131 135 137 133 133 134 126 129 132 136 134 137 139 147 151 156 159 166 173 181 192 194 187 177 177 168 164 160 159 151 148 148 141 139 137 141 146 137 145 138 138 142 142 133 143 137 127 131 137 129 117 121 125 112 108 106 108 110 111 117 114 109 98 105 103 108 118 130 122 119 129 124 115 108 116 132 123 115 130 121 117 118 119 106 99 107 98 101 110 119 111 117 117 104 102 92 103 105 103 118 130 144 156 166 182 181 153 128 117 101 88 77 75 79 76 75 75 75 75 75 75 75 75 75 75 76 95 128 155 135 142 134 138 143 136 130 145 228 368 504 580 635 693 506 572 444 420 236 203 205 220 241 383 393 314 300 258 241 237 254 242 248 263 284 304 312 330 362 379 382 498 -9999 -9999 -9999 -9999 -9999 -9999 -9999 -9999 -9999 -9999 -9999 -9999 -9999 -9999 -9999 -9999 -9999 -9999 -9999 -9999 -9999 -9999 -9999 -9999 -9999 -9999 -9999 -9999 -9999 -9999 -9999 -9999 -9999 -9999 -9999 -9999 -9999 -9999 -9999 -9999 -9999 -9999 -9999 -9999 -9999 -9999 -9999 -9999 -9999 -9999 -9999 -9999 -9999 -9999 -9999 -9999 -9999 -9999 -9999 -9999 -9999 -9999 -9999 -9999 -9999 -9999 -9999
-9999 -9999 -9999 -9999 -9999 -9999 -9999 -9999 -9999 -9999 -9999 -9999 -9999 -9999 -9999 -9999 -9999 -9999 -9999 -9999 -9999 -9999 -9999 -9999 -9999 -9999 -9999 -9999 -9999 -9999 -9999 -9999 -9999 -9999 -9999 -9999 -9999 251 245 246 246 246 250 248 253 272 269 269 281 278 274 280 280 284 288 301 290 272 269 258 258 246 257 269 251 242 250 265 271 276 268 288 298 298 285 300 289 286 285 275 292 297 292 292 293 288 302 297 286 275 268 265 267 261 245 248 268 268 274 257 270 273 282 270 266 264 271 276 280 290 278 270 271 258 259 256 240 241 229 229 237 245 263 258 251 251 271 276 289 313 311 293 293 283 299 299 297 305 313 304 305 308 305 308 312 300 321 332 318 323 329 328 310 333 331 332 337 311 305 285 278 272 282 285 292 293 290 267 270 260 257 236 238 253 231 248 234 247 270 304 324 324 332 341 357 382 370 329 308 310 299 278 276 282 316 314 352 405 388 386 361 353 328 309 294 283 266 239 218 205 209 217 223 214 240 262 253 233 206 199 205 211 205 188 169 160 155 153 150 150 148 139 136 134 134 129 130 131 135 143 149 140 136 138 139 125 121 128 131 135 128 124 135 147 156 160 166 165 161 164 164 165 183 187 194 196 190 181 192 182 186 188 190 189 187 181 174 175 163 162 164 162 155 163 172 165 167 159 147 143 148 139 145 138 130 131 136 130 130 141 143 142 132 127 126 124 128 136 143 145 146 151 148 153 157 159 164 170 182 197 189 184 188 181 177 167 160 154 147 146 149 150 139 135 136 133 134 130 132 131 138 131 131 133 131 121 125 122 115 110 118 112 111 116 108 102 103 103 109 112 102 100 107 114 120 125 118 109 120 119 110 105 116 126 116 114 127 118 107 106 120 110 101 98 95 109 113 117 106 106 113 104 102 91 98 99 107 128 144 149 152 159 172 180 151 151 106 95 88 76 75 78 76 75 75 75 75 75 75 75 75 75 75 75 88 109 118 106 120 120 123 129 123 123 144 184 273 469 573 596 703 524 468 447 462 218 193 202 221 250 388 471 347 291 258 233 228 231 235 250 268 296 301 319 333 364 385 415 645 -9999 -9999 -9999 -9999 -9999 -9999 -9999 -9999 -9999 -9999 -9999 -9999 -9999 -9999 -9999 -9999 -9999 -9999 -9999 -9999 -9999 -9999 -9999 -9999 -9999 -9999 -9999 -9999 -9999 -9999 -9999 -9999 -9999 -9999 -9999 -9999 -9999 -9999 -9999 -9999 -9999 -9999 -9999 -9999 -9999 -9999 -9999 -9999 -9999 -9999 -9999 -9999 -9999 -9999 -9999 -9999 -9999 -9999 -9999 -9999 -9999 -9999 -9999 -9999 -9999 -9999 -9999
-9999 -9999 -9999 -9999 -9999 -9999 -9999 -9999 -9999 -9999 -9999 -9999 -9999 -9999 -9999 -9999 -9999 -9999 -9999 -9999 -9999 -9999 -9999 -9999 -9999 -9999 -9999 -9999 -9999 -9999 -9999 -9999 -9999 -9999 -9999 -9999 -9999 241 254 265 260 254 260 260 257 276 279 280 270 284 282 288 288 288 297 304 289 283 283 268 264 252 252 261 243 242 256 259 260 281 270 278 274 288 277 289 288 294 278 273 282 279 282 296 284 279 291 296 286 282 281 279 272 276 254 244 251 260 281 255 257 269 271 267 261 266 269 271 281 285 284 271 262 252 249 246 240 248 229 234 250 262 255 273 268 261 258 269 285 292 280 275 280 291 288 285 293 296 303 314 309 314 309 313 328 306 299 318 328 334 339 322 324 328 336 343 325 317 287 290 288 292 290 306 289 276 280 281 271 256 237 237 246 258 236 250 244 261 297 315 304 321 340 369 386 398 399 345 327 309 299 292 304 299 337 373 454 438 416 406 396 358 347 332 319 299 277 255 232 213 218 233 238 229 266 278 260 230 206 236 233 219 196 180 178 172 162 156 151 146 144 141 139 137 135 133 129 127 129 132 141 145 139 133 130 131 123 118 125 126 119 127 134 138 140 145 149 169 178 174 186 181 197 196 199 188 189 193 194 195 186 179 186 182 177 185 184 177 172 172 169 164 163 170 171 167 163 162 154 142 138 136 138 139 131 127 128 125 131 137 136 138 131 121 121 131 133 140 145 143 141 138 141 144 151 160 158 172 172 188 199 195 184 180 167 163 156 154 156 162 160 149 150 147 140 136 135 131 134 131 126 126 121 122 122 118 118 116 115 115 114 112 123 122 112 110 117 111 102 100 98 95 108 111 111 115 112 107 112 118 102 106 117 123 109 118 126 114 106 102 119 116 105 97 92 100 108 118 110 98 99 101 92 86 88 102 119 132 139 154 154 163 176 161 128 134 96 81 77 76 78 76 75 75 75 75 75 75 75 75 75 75 75 75 79 81 84 85 86 92 102 112 107 122 143 206 318 604 580 538 707 591 401 467 449 205 192 206 221 261 439 416 309 312 283 230 219 244 260 264 272 288 306 321 332 346 403 494 808 -9999 -9999 -9999 -9999 -9999 -9999 -9999 -9999 -9999 -9999 -9999 -9999 -9999 -9999 -9999 -9999 -9999 -9999 -9999 -9999 -9999 -9999 -9999 -9999 -9999 -9999 -9999 -9999 -9999 -9999 -9999 -9999 -9999 -9999 -9999 -9999 -9999 -9999 -9999 -9999 -9999 -9999 -9999 -9999 -9999 -9999 -9999 -9999 -9999 -9999 -9999 -9999 -9999 -9999 -9999 -9999 -9999 -9999 -9999 -9999 -9999 -9999 -9999 -9999 -9999 -9999 -9999
-9999 -9999 -9999 -9999 -9999 -9999 -9999 -9999 -9999 -9999 -9999 -9999 -9999 -9999 -9999 -9999 -9999 -9999 -9999 -9999 -9999 -9999 -9999 -9999 -9999 -9999 -9999 -9999 -9999 -9999 -9999 -9999 -9999 -9999 -9999 -9999 242 248 260 272 279 261 279 269 266 268 281 289 278 278 293 287 287 299 302 306 288 282 275 279 263 254 241 254 234 246 250 255 271 279 279 261 277 282 277 275 283 302 293 279 270 278 279 278 273 277 288 290 289 284 284 288 281 279 267 254 239 244 256 261 243 259 265 263 255 267 277 274 279 281 274 279 274 256 249 247 235 228 227 233 245 256 268 262 280 271 263 264 262 270 266 277 282 281 286 291 292 294 310 325 317 330 330 310 333 315 299 305 320 322 335 328 321 314 336 334 324 299 294 305 307 307 315 308 309 287 269 262 253 241 246 245 260 252 249 245 253 268 276 295 308 329 334 348 374 360 343 326 320 330 304 322 309 304 326 344 376 416 445 431 390 382 379 362 340 314 294 263 248 233 230 253 237 248 295 283 265 231 214 254 242 212 185 209 206 183 170 163 149 146 146 152 151 151 140 130 127 126 124 124 125 131 136 136 137 131 125 117 116 115 115 118 124 119 135 162 147 165 165 175 182 190 202 198 182 183 173 184 192 191 187 184 176 176 171 178 174 178 174 178 174 172 168 162 160 156 157 152 154 148 141 132 128 136 136 129 125 123 126 132 130 127 129 119 126 134 141 134 134 134 136 144 153 149 152 156 155 160 167 177 195 188 177 173 173 170 162 169 166 173 159 154 145 140 136 146 147 147 146 133 136 130 133 131 125 124 134 123 127 132 122 123 131 128 123 116 122 117 111 112 100 95 99 98 110 110 107 107 103 112 103 102 116 113 104 98 106 104 96 104 109 109 102 97 89 92 104 110 101 89 92 100 88 81 95 115 129 142 149 146 133 139 137 154 132 124 102 79 75 75 81 76 75 75 75 75 75 75 75 75 75 75 75 75 75 75 76 78 78 89 91 92 107 128 187 333 495 674 517 374 476 638 394 457 354 200 191 213 239 305 525 433 334 279 303 222 225 254 255 249 264 289 301 303 325 345 402 562 780 -9999 -9999 -9999 -9999 -9999 -9999 -9999 -9999 -9999 -9999 -9999 -9999 -9999 -9999 -9999 -9999 -9999 -9999 -9999 -9999 -9999 -9999 -9999 -9999 -9999 -9999 -9999 -9999 -9999 -9999 -9999 -9999 -9999 -9999 -9999 -9999 -9999 -9999 -9999 -9999 -9999 -9999 -9999 -9999 -9999 -9999 -9999 -9999 -9999 -9999 -9999 -9999 -9999 -9999 -9999 -9999 -9999 -9999 -9999 -9999 -9999 -9999 -9999 -9999 -9999 -9999 -9999
